//X,Y,Z,Rf,Gf,Bf,Point Source ID,Scan Angle Rank,Flightline Edge,Scan Direction,Number of Returns,Return Number,Time,Intensity,Classification
315790.30603027,234925.67578125,20.11000061,0,1,1,12.000000,8.000000,0.000000,1.000000,1.000000,1.000000,392195.158062,296.000000,4.000000
315790.29797363,234925.69824219,20.97500038,0,1,1,12.000000,8.000000,0.000000,1.000000,2.000000,1.000000,392195.158062,236.000000,4.000000
315790.45104980,234925.81005859,19.59000015,0,1,1,12.000000,8.000000,0.000000,1.000000,2.000000,2.000000,392195.158062,55.000000,4.000000
315790.22802734,234925.76123047,19.57699966,0,1,1,12.000000,8.000000,0.000000,1.000000,1.000000,1.000000,392195.167462,420.000000,2.000000
315790.31701660,234925.85400391,19.58699989,0,1,1,12.000000,8.000000,0.000000,1.000000,1.000000,1.000000,392195.167462,389.000000,2.000000
315790.22399902,234925.81494141,21.22999954,0,1,1,12.000000,8.000000,0.000000,1.000000,3.000000,2.000000,392195.167462,157.000000,4.000000
315790.40405273,234925.94482422,19.60000038,0,1,1,12.000000,8.000000,0.000000,1.000000,3.000000,3.000000,392195.167462,279.000000,2.000000
315790.20605469,234925.97216797,19.57799911,0,1,1,12.000000,8.000000,0.000000,1.000000,1.000000,1.000000,392195.176861,430.000000,2.000000
315790.29296875,234926.06298828,19.59700012,0,1,1,12.000000,8.000000,0.000000,1.000000,1.000000,1.000000,392195.176861,324.000000,2.000000
315790.19702148,234926.02197266,21.29199982,0,1,1,12.000000,8.000000,0.000000,1.000000,2.000000,1.000000,392195.176861,198.000000,4.000000
315790.09997559,234925.96777344,19.60700035,0,1,1,12.000000,8.000000,0.000000,1.000000,2.000000,1.000000,392195.186139,27.000000,4.000000
315790.19702148,234926.06884766,19.58499908,0,1,1,12.000000,8.000000,0.000000,1.000000,1.000000,1.000000,392195.186139,379.000000,2.000000
315790.28698730,234926.16308594,19.59399986,0,1,1,12.000000,8.000000,0.000000,1.000000,1.000000,1.000000,392195.186139,416.000000,2.000000
315790.18298340,234926.11621094,21.32399940,0,1,1,12.000000,8.000000,0.000000,1.000000,3.000000,2.000000,392195.186139,185.000000,4.000000
315790.08605957,234926.24707031,19.55800056,0,1,1,12.000000,8.000000,0.000000,1.000000,1.000000,1.000000,392195.195538,429.000000,2.000000
315790.17602539,234926.34082031,19.59199905,0,1,1,12.000000,8.000000,0.000000,1.000000,1.000000,1.000000,392195.195538,446.000000,2.000000
315790.08105469,234926.29980469,21.23500061,0,1,1,12.000000,8.000000,0.000000,1.000000,2.000000,1.000000,392195.195538,46.000000,4.000000
315790.26098633,234926.43115234,19.61199951,0,1,1,12.000000,8.000000,0.000000,1.000000,2.000000,2.000000,392195.195538,498.000000,2.000000
315790.10302734,234926.41015625,19.57799911,0,1,1,12.000000,8.000000,0.000000,1.000000,1.000000,1.000000,392195.204937,466.000000,2.000000
315790.18798828,234926.49804688,19.59300041,0,1,1,12.000000,8.000000,0.000000,1.000000,1.000000,1.000000,392195.204937,421.000000,2.000000
315790.08898926,234926.45605469,21.29500008,0,1,1,12.000000,8.000000,0.000000,1.000000,3.000000,2.000000,392195.204937,195.000000,4.000000
315789.99304199,234926.45996094,19.58699989,0,1,1,12.000000,8.000000,0.000000,1.000000,2.000000,1.000000,392195.214337,216.000000,4.000000
315790.08801270,234926.56005859,19.58799934,0,1,1,12.000000,8.000000,0.000000,1.000000,1.000000,1.000000,392195.214337,364.000000,4.000000
315790.17895508,234926.65576172,19.60600090,0,1,1,12.000000,8.000000,0.000000,1.000000,1.000000,1.000000,392195.214337,428.000000,4.000000
315789.97204590,234926.62597656,19.57900047,0,1,1,12.000000,8.000000,0.000000,1.000000,2.000000,1.000000,392195.223736,217.000000,4.000000
315790.06494141,234926.72314453,19.58799934,0,1,1,12.000000,8.000000,0.000000,1.000000,1.000000,1.000000,392195.223736,378.000000,4.000000
315789.96899414,234926.68212891,21.26399994,0,1,1,12.000000,8.000000,0.000000,1.000000,2.000000,1.000000,392195.223736,13.000000,4.000000
315790.15405273,234926.81689453,19.60899925,0,1,1,12.000000,8.000000,0.000000,1.000000,2.000000,2.000000,392195.223736,599.000000,4.000000
315789.90698242,234926.79492188,19.56599998,0,1,1,12.000000,8.000000,0.000000,1.000000,2.000000,1.000000,392195.233014,145.000000,4.000000
315790.00305176,234926.89501953,19.59000015,0,1,1,12.000000,8.000000,0.000000,1.000000,1.000000,1.000000,392195.233014,572.000000,4.000000
315790.08898926,234926.98583984,19.61599922,0,1,1,12.000000,8.000000,0.000000,1.000000,1.000000,1.000000,392195.233014,664.000000,4.000000
315789.98400879,234926.93896484,21.36800003,0,1,1,12.000000,8.000000,0.000000,1.000000,2.000000,2.000000,392195.233136,88.000000,4.000000
315789.92504883,234926.92480469,19.57099915,0,1,1,12.000000,8.000000,0.000000,1.000000,1.000000,1.000000,392195.242413,430.000000,2.000000
315790.01794434,234927.02197266,19.59399986,0,1,1,12.000000,8.000000,0.000000,1.000000,1.000000,1.000000,392195.242413,484.000000,2.000000
315789.92297363,234926.98291016,21.24900055,0,1,1,12.000000,8.000000,0.000000,1.000000,2.000000,1.000000,392195.242413,97.000000,4.000000
315789.82299805,234927.02001953,19.57699966,0,1,1,12.000000,8.000000,0.000000,1.000000,2.000000,1.000000,392195.251812,64.000000,4.000000
315789.90905762,234927.10888672,19.58300018,0,1,1,12.000000,8.000000,0.000000,1.000000,1.000000,1.000000,392195.251812,373.000000,2.000000
315790.00598145,234927.21093750,19.59399986,0,1,1,12.000000,8.000000,0.000000,1.000000,1.000000,1.000000,392195.251812,485.000000,2.000000
315789.89697266,234927.16113281,21.32799911,0,1,1,12.000000,8.000000,0.000000,1.000000,3.000000,2.000000,392195.251812,207.000000,4.000000
315789.87500000,234927.15917969,19.55200005,0,1,1,12.000000,8.000000,0.000000,1.000000,1.000000,1.000000,392195.261212,288.000000,4.000000
315789.95495605,234927.24414063,19.59700012,0,1,1,12.000000,8.000000,0.000000,1.000000,1.000000,1.000000,392195.261212,416.000000,4.000000
315789.76904297,234927.30175781,19.59399986,0,1,1,12.000000,8.000000,0.000000,1.000000,2.000000,1.000000,392195.270611,166.000000,4.000000
315789.85998535,234927.39697266,19.58499908,0,1,1,12.000000,8.000000,0.000000,1.000000,1.000000,1.000000,392195.270611,429.000000,4.000000
315789.76501465,234927.35888672,21.24500084,0,1,1,12.000000,8.000000,0.000000,1.000000,2.000000,1.000000,392195.270611,9.000000,4.000000
315789.95104980,234927.49218750,19.60300064,0,1,1,12.000000,8.000000,0.000000,1.000000,2.000000,2.000000,392195.270611,505.000000,4.000000
315789.78002930,234927.48388672,19.58399963,0,1,1,12.000000,8.000000,0.000000,1.000000,1.000000,1.000000,392195.279889,421.000000,2.000000
315789.86694336,234927.57421875,19.58799934,0,1,1,12.000000,8.000000,0.000000,1.000000,1.000000,1.000000,392195.279889,445.000000,2.000000
315789.77502441,234927.54101563,21.27000046,0,1,1,12.000000,8.000000,0.000000,1.000000,2.000000,1.000000,392195.280011,180.000000,4.000000
315789.71301270,234927.52978516,19.55599976,0,1,1,12.000000,8.000000,0.000000,1.000000,2.000000,1.000000,392195.289288,185.000000,4.000000
315789.80700684,234927.62890625,19.59000015,0,1,1,12.000000,8.000000,0.000000,1.000000,1.000000,1.000000,392195.289288,384.000000,4.000000
315789.70703125,234927.58593750,21.23399925,0,1,1,12.000000,8.000000,0.000000,1.000000,2.000000,1.000000,392195.289288,8.000000,4.000000
315789.89196777,234927.71777344,19.61199951,0,1,1,12.000000,8.000000,0.000000,1.000000,2.000000,2.000000,392195.289288,398.000000,4.000000
315789.78796387,234927.67578125,21.38999939,0,1,1,12.000000,8.000000,0.000000,1.000000,2.000000,2.000000,392195.289288,71.000000,4.000000
315789.70703125,234927.67382813,19.59700012,0,1,1,12.000000,8.000000,0.000000,1.000000,1.000000,1.000000,392195.298687,329.000000,2.000000
315789.80102539,234927.77099609,19.59799957,0,1,1,12.000000,8.000000,0.000000,1.000000,1.000000,1.000000,392195.298687,387.000000,2.000000
315789.70495605,234927.73388672,21.23800087,0,1,1,12.000000,8.000000,0.000000,1.000000,2.000000,1.000000,392195.298687,35.000000,4.000000
315789.64904785,234927.94824219,19.58399963,0,1,1,12.000000,8.000000,0.000000,1.000000,1.000000,1.000000,392195.317486,417.000000,2.000000
315789.74499512,234928.04882813,19.60000038,0,1,1,12.000000,8.000000,0.000000,1.000000,1.000000,1.000000,392195.317486,415.000000,2.000000
315789.64099121,234928.00390625,21.27199936,0,1,1,12.000000,8.000000,0.000000,1.000000,3.000000,2.000000,392195.317486,168.000000,4.000000
315789.63903809,234927.83984375,19.58499908,0,1,1,12.000000,8.000000,0.000000,1.000000,2.000000,1.000000,392195.308087,179.000000,4.000000
315789.73706055,234927.94091797,19.58900070,0,1,1,12.000000,8.000000,0.000000,1.000000,1.000000,1.000000,392195.308087,475.000000,4.000000
315789.63500977,234927.89697266,21.23100090,0,1,1,12.000000,8.000000,0.000000,1.000000,2.000000,1.000000,392195.308087,9.000000,4.000000
315789.81994629,234928.02880859,19.61300087,0,1,1,12.000000,8.000000,0.000000,1.000000,2.000000,2.000000,392195.308087,516.000000,4.000000
315789.54394531,234928.06591797,19.58799934,0,1,1,12.000000,8.000000,0.000000,1.000000,2.000000,1.000000,392195.326764,45.000000,4.000000
315789.64404297,234928.16992188,19.58300018,0,1,1,12.000000,8.000000,0.000000,1.000000,1.000000,1.000000,392195.326764,488.000000,2.000000
315789.73498535,234928.26513672,19.60199928,0,1,1,12.000000,8.000000,0.000000,1.000000,1.000000,1.000000,392195.326886,363.000000,2.000000
315789.62695313,234928.21777344,21.33300018,0,1,1,12.000000,8.000000,0.000000,1.000000,3.000000,2.000000,392195.326886,239.000000,4.000000
315789.55395508,234928.17089844,19.60499954,0,1,1,12.000000,8.000000,0.000000,1.000000,1.000000,1.000000,392195.336163,253.000000,2.000000
315789.65295410,234928.27294922,19.59099960,0,1,1,12.000000,8.000000,0.000000,1.000000,1.000000,1.000000,392195.336163,373.000000,2.000000
315789.55395508,234928.23583984,21.27700043,0,1,1,12.000000,8.000000,0.000000,1.000000,2.000000,1.000000,392195.336163,33.000000,4.000000
315789.50097656,234928.32910156,19.60700035,0,1,1,12.000000,8.000000,0.000000,1.000000,1.000000,1.000000,392195.345562,229.000000,4.000000
315789.59704590,234928.42822266,19.59300041,0,1,1,12.000000,8.000000,0.000000,1.000000,2.000000,2.000000,392195.345562,299.000000,4.000000
315789.46301270,234928.36523438,21.56800079,0,1,1,12.000000,8.000000,0.000000,1.000000,1.000000,1.000000,392195.345562,117.000000,4.000000
315789.44104004,234928.40185547,19.59099960,0,1,1,12.000000,8.000000,0.000000,1.000000,2.000000,1.000000,392195.354962,65.000000,4.000000
315789.52795410,234928.49316406,19.60000038,0,1,1,12.000000,8.000000,0.000000,1.000000,1.000000,1.000000,392195.354962,578.000000,4.000000
315789.39904785,234928.43603516,21.55699921,0,1,1,12.000000,8.000000,0.000000,1.000000,2.000000,1.000000,392195.354962,111.000000,4.000000
315789.58801270,234928.56884766,19.93799973,0,1,1,12.000000,8.000000,0.000000,1.000000,2.000000,2.000000,392195.354962,7.000000,4.000000
315789.47705078,234928.57421875,19.58399963,0,1,1,12.000000,8.000000,0.000000,1.000000,1.000000,1.000000,392195.364361,328.000000,4.000000
315789.51904297,234928.63476563,20.01000023,0,1,1,12.000000,8.000000,0.000000,1.000000,2.000000,2.000000,392195.364361,46.000000,4.000000
315789.43103027,234928.60400391,21.57900047,0,1,1,12.000000,8.000000,0.000000,1.000000,1.000000,1.000000,392195.364361,169.000000,4.000000
315789.35803223,234928.60498047,19.84199905,0,1,1,12.000000,8.000000,0.000000,1.000000,1.000000,1.000000,392195.373639,92.000000,4.000000
315789.34204102,234928.62500000,20.76600075,0,1,1,12.000000,8.000000,0.000000,1.000000,2.000000,1.000000,392195.373639,22.000000,4.000000
315789.47595215,234928.71923828,19.61199951,0,1,1,12.000000,8.000000,0.000000,1.000000,2.000000,2.000000,392195.373639,112.000000,4.000000
315789.48498535,234928.75585938,20.32099915,0,1,1,12.000000,8.000000,0.000000,1.000000,2.000000,2.000000,392195.373761,28.000000,4.000000
315790.19604492,234925.72216797,19.58499908,0,1,1,13.000000,24.000000,0.000000,1.000000,1.000000,1.000000,392485.999127,369.000000,2.000000
315790.28295898,234925.82812500,19.63699913,0,1,1,13.000000,24.000000,0.000000,1.000000,1.000000,1.000000,392485.999127,329.000000,4.000000
315790.18395996,234925.72412109,20.32099915,0,1,1,13.000000,24.000000,0.000000,1.000000,2.000000,1.000000,392485.999127,27.000000,4.000000
315790.37597656,234925.94091797,19.65900040,0,1,1,13.000000,24.000000,0.000000,1.000000,2.000000,2.000000,392485.999127,292.000000,2.000000
315790.18896484,234925.73779297,20.63999939,0,1,1,13.000000,24.000000,0.000000,1.000000,2.000000,1.000000,392485.999127,25.000000,4.000000
315790.35302734,234925.93017578,20.41399956,0,1,1,13.000000,24.000000,0.000000,1.000000,2.000000,1.000000,392485.999127,157.000000,4.000000
315790.21496582,234925.78222656,21.22100067,0,1,1,13.000000,24.000000,0.000000,1.000000,1.000000,1.000000,392485.999127,284.000000,4.000000
315790.22094727,234925.79492188,21.51600075,0,1,1,13.000000,24.000000,0.000000,1.000000,1.000000,1.000000,392485.999127,288.000000,4.000000
315790.18298340,234926.01904297,19.60899925,0,1,1,13.000000,24.000000,0.000000,1.000000,1.000000,1.000000,392486.008526,345.000000,2.000000
315790.28295898,234926.14013672,19.62800026,0,1,1,13.000000,24.000000,0.000000,1.000000,1.000000,1.000000,392486.008526,296.000000,2.000000
315790.35302734,234926.24218750,20.39999962,0,1,1,13.000000,24.000000,0.000000,1.000000,3.000000,1.000000,392486.008526,74.000000,4.000000
315790.17297363,234926.04492188,21.35499954,0,1,1,13.000000,24.000000,0.000000,1.000000,1.000000,1.000000,392486.008526,288.000000,4.000000
315790.05895996,234926.19287109,19.49500084,0,1,1,13.000000,24.000000,0.000000,1.000000,1.000000,1.000000,392486.017926,324.000000,4.000000
315790.12695313,234926.27783203,19.59099960,0,1,1,13.000000,24.000000,0.000000,1.000000,1.000000,1.000000,392486.017926,350.000000,2.000000
315790.22302246,234926.39501953,19.61000061,0,1,1,13.000000,24.000000,0.000000,1.000000,1.000000,1.000000,392486.017926,425.000000,2.000000
315790.20800781,234926.39306641,20.33200073,0,1,1,13.000000,24.000000,0.000000,1.000000,2.000000,1.000000,392486.017926,51.000000,4.000000
315790.06896973,234926.24316406,21.16699982,0,1,1,13.000000,24.000000,0.000000,1.000000,4.000000,1.000000,392486.017926,111.000000,4.000000
315790.29101563,234926.49511719,20.40299988,0,1,1,13.000000,24.000000,0.000000,1.000000,4.000000,2.000000,392486.017926,40.000000,4.000000
315790.08996582,234926.27392578,21.41500092,0,1,1,13.000000,24.000000,0.000000,1.000000,1.000000,1.000000,392486.017926,369.000000,4.000000
315790.02099609,234926.45507813,19.59199905,0,1,1,13.000000,24.000000,0.000000,1.000000,1.000000,1.000000,392486.027203,379.000000,2.000000
315790.10900879,234926.56201172,19.60199928,0,1,1,13.000000,24.000000,0.000000,1.000000,1.000000,1.000000,392486.027203,341.000000,2.000000
315790.19897461,234926.67187500,19.66600037,0,1,1,13.000000,24.000000,0.000000,1.000000,1.000000,1.000000,392486.027203,153.000000,2.000000
315790.16003418,234926.64306641,20.46100044,0,1,1,13.000000,24.000000,0.000000,1.000000,2.000000,1.000000,392486.027325,45.000000,4.000000
315790.03002930,234926.50292969,21.24600029,0,1,1,13.000000,24.000000,0.000000,1.000000,1.000000,1.000000,392486.027325,328.000000,4.000000
315790.04101563,234926.52294922,21.54800034,0,1,1,13.000000,24.000000,0.000000,1.000000,1.000000,1.000000,392486.027325,350.000000,4.000000
315789.93994141,234926.73388672,19.54299927,0,1,1,13.000000,24.000000,0.000000,1.000000,1.000000,1.000000,392486.036602,349.000000,4.000000
315790.01794434,234926.83007813,19.60400009,0,1,1,13.000000,24.000000,0.000000,1.000000,1.000000,1.000000,392486.036602,346.000000,2.000000
315790.10900879,234926.94091797,19.63800049,0,1,1,13.000000,24.000000,0.000000,1.000000,1.000000,1.000000,392486.036602,346.000000,2.000000
315789.95703125,234926.79101563,21.18600082,0,1,1,13.000000,24.000000,0.000000,1.000000,3.000000,1.000000,392486.036602,122.000000,4.000000
315789.97204590,234926.81591797,21.46800041,0,1,1,13.000000,24.000000,0.000000,1.000000,1.000000,1.000000,392486.036602,355.000000,4.000000
315789.86303711,234926.97412109,19.57600021,0,1,1,13.000000,24.000000,0.000000,1.000000,1.000000,1.000000,392486.046002,321.000000,2.000000
315789.95300293,234927.08300781,19.59700012,0,1,1,13.000000,24.000000,0.000000,1.000000,1.000000,1.000000,392486.046002,317.000000,2.000000
315790.03796387,234927.18701172,19.64299965,0,1,1,13.000000,24.000000,0.000000,1.000000,1.000000,1.000000,392486.046002,304.000000,2.000000
315789.87805176,234927.02783203,21.22299957,0,1,1,13.000000,24.000000,0.000000,1.000000,2.000000,1.000000,392486.046002,270.000000,4.000000
315789.88305664,234927.04101563,21.52099991,0,1,1,13.000000,24.000000,0.000000,1.000000,1.000000,1.000000,392486.046002,341.000000,4.000000
315789.84594727,234927.28710938,19.60400009,0,1,1,13.000000,24.000000,0.000000,1.000000,1.000000,1.000000,392486.055401,358.000000,2.000000
315789.93395996,234927.39404297,19.61199951,0,1,1,13.000000,24.000000,0.000000,1.000000,1.000000,1.000000,392486.055401,378.000000,2.000000
315789.83300781,234927.30908203,21.33200073,0,1,1,13.000000,24.000000,0.000000,1.000000,1.000000,1.000000,392486.055401,345.000000,4.000000
315789.80700684,234927.47900391,19.58900070,0,1,1,13.000000,24.000000,0.000000,1.000000,1.000000,1.000000,392486.064801,345.000000,2.000000
315789.89904785,234927.59082031,19.61100006,0,1,1,13.000000,24.000000,0.000000,1.000000,1.000000,1.000000,392486.064801,338.000000,2.000000
315789.77404785,234927.47900391,21.39900017,0,1,1,13.000000,24.000000,0.000000,1.000000,1.000000,1.000000,392486.064801,325.000000,4.000000
315789.68896484,234927.75195313,19.58699989,0,1,1,13.000000,24.000000,0.000000,1.000000,1.000000,1.000000,392486.074078,326.000000,2.000000
315789.78198242,234927.86376953,19.60700035,0,1,1,13.000000,24.000000,0.000000,1.000000,1.000000,1.000000,392486.074078,363.000000,2.000000
315789.69104004,234927.79003906,21.28199959,0,1,1,13.000000,24.000000,0.000000,1.000000,1.000000,1.000000,392486.074200,309.000000,4.000000
315789.68994141,234927.79687500,21.59700012,0,1,1,13.000000,24.000000,0.000000,1.000000,1.000000,1.000000,392486.074200,306.000000,4.000000
315789.59399414,234927.88183594,19.54500008,0,1,1,13.000000,24.000000,0.000000,1.000000,1.000000,1.000000,392486.083477,333.000000,2.000000
315789.67602539,234927.98291016,19.59300041,0,1,1,13.000000,24.000000,0.000000,1.000000,1.000000,1.000000,392486.083477,279.000000,2.000000
315789.76098633,234928.08789063,19.62100029,0,1,1,13.000000,24.000000,0.000000,1.000000,1.000000,1.000000,392486.083477,333.000000,2.000000
315789.73999023,234928.07910156,20.38699913,0,1,1,13.000000,24.000000,0.000000,1.000000,2.000000,1.000000,392486.083477,197.000000,4.000000
315789.63000488,234927.96679688,21.43499947,0,1,1,13.000000,24.000000,0.000000,1.000000,1.000000,1.000000,392486.083477,295.000000,4.000000
315789.57299805,234928.15283203,19.58900070,0,1,1,13.000000,24.000000,0.000000,1.000000,1.000000,1.000000,392486.092877,328.000000,2.000000
315789.66101074,234928.26123047,19.60000038,0,1,1,13.000000,24.000000,0.000000,1.000000,1.000000,1.000000,392486.092877,285.000000,2.000000
315789.72399902,234928.35400391,20.41500092,0,1,1,13.000000,24.000000,0.000000,1.000000,1.000000,1.000000,392486.092877,188.000000,4.000000
315789.59204102,234928.21777344,21.52499962,0,1,1,13.000000,24.000000,0.000000,1.000000,1.000000,1.000000,392486.092877,358.000000,4.000000
315789.52404785,234928.37890625,19.58699989,0,1,1,13.000000,24.000000,0.000000,1.000000,1.000000,1.000000,392486.102276,332.000000,4.000000
315789.61206055,234928.48583984,19.60799980,0,1,1,13.000000,24.000000,0.000000,1.000000,1.000000,1.000000,392486.102276,449.000000,4.000000
315789.64501953,234928.53222656,19.82799911,0,1,1,13.000000,24.000000,0.000000,1.000000,1.000000,1.000000,392486.102276,332.000000,4.000000
315789.62902832,234928.52099609,20.21800041,0,1,1,13.000000,24.000000,0.000000,1.000000,1.000000,1.000000,392486.102276,345.000000,4.000000
315789.62500000,234928.52294922,20.58399963,0,1,1,13.000000,24.000000,0.000000,1.000000,1.000000,1.000000,392486.102276,329.000000,2.000000
315789.48303223,234928.36816406,21.39100075,0,1,1,13.000000,24.000000,0.000000,1.000000,1.000000,1.000000,392486.102276,102.000000,4.000000
315789.38696289,234928.82080078,19.68700027,0,1,1,13.000000,24.000000,0.000000,1.000000,1.000000,1.000000,392486.120953,198.000000,4.000000
315789.40197754,234928.61914063,19.62199974,0,1,1,13.000000,24.000000,0.000000,1.000000,1.000000,1.000000,392486.111676,125.000000,4.000000
315789.43395996,234928.66308594,19.85099983,0,1,1,13.000000,24.000000,0.000000,1.000000,1.000000,1.000000,392486.111676,177.000000,4.000000
315789.43200684,234928.66796875,20.17600060,0,1,1,13.000000,24.000000,0.000000,1.000000,1.000000,1.000000,392486.111676,180.000000,4.000000
315789.42395020,234928.66601563,20.54899979,0,1,1,13.000000,24.000000,0.000000,1.000000,1.000000,1.000000,392486.111676,148.000000,4.000000
315789.40100098,234928.64697266,20.96800041,0,1,1,13.000000,24.000000,0.000000,1.000000,1.000000,1.000000,392486.111676,94.000000,4.000000
315789.41699219,234928.68017578,21.58799934,0,1,1,13.000000,24.000000,0.000000,1.000000,1.000000,1.000000,392486.111676,167.000000,4.000000
315789.27197266,234928.68212891,19.75000000,0,1,1,13.000000,24.000000,0.000000,1.000000,2.000000,1.000000,392486.120953,59.000000,4.000000
315789.47094727,234928.49414063,21.50600052,0,1,1,21.000000,-13.000000,0.000000,1.000000,1.000000,1.000000,394522.603985,154.000000,4.000000
315789.39794922,234928.63476563,21.59700012,0,1,1,21.000000,-13.000000,0.000000,1.000000,1.000000,1.000000,394522.603985,122.000000,4.000000
315789.38098145,234928.67919922,21.16799927,0,1,1,21.000000,-13.000000,0.000000,1.000000,1.000000,1.000000,394522.603985,100.000000,4.000000
315789.39697266,234928.66796875,20.44799995,0,1,1,21.000000,-13.000000,0.000000,1.000000,2.000000,1.000000,394522.603985,38.000000,4.000000
315789.47998047,234928.52294922,19.73900032,0,1,1,21.000000,-13.000000,0.000000,1.000000,2.000000,2.000000,394522.603985,32.000000,4.000000
315789.41101074,234928.65722656,19.80200005,0,1,1,21.000000,-13.000000,0.000000,1.000000,1.000000,1.000000,394522.603985,47.000000,4.000000
315789.35095215,234928.77783203,19.73999977,0,1,1,21.000000,-13.000000,0.000000,1.000000,2.000000,1.000000,394522.603985,110.000000,4.000000
315790.04394531,234927.17187500,19.55500031,0,1,1,21.000000,-13.000000,0.000000,1.000000,2.000000,2.000000,394522.613263,12.000000,2.000000
315789.97802734,234927.30078125,19.59399986,0,1,1,21.000000,-13.000000,0.000000,1.000000,2.000000,2.000000,394522.613263,50.000000,2.000000
315789.90795898,234927.43896484,19.60600090,0,1,1,21.000000,-13.000000,0.000000,1.000000,2.000000,2.000000,394522.613263,256.000000,2.000000
315789.83996582,234927.57324219,19.60799980,0,1,1,21.000000,-13.000000,0.000000,1.000000,2.000000,2.000000,394522.613263,341.000000,2.000000
315789.77697754,234927.69677734,19.60700035,0,1,1,21.000000,-13.000000,0.000000,1.000000,1.000000,1.000000,394522.613263,410.000000,2.000000
315789.71203613,234927.82519531,19.58799934,0,1,1,21.000000,-13.000000,0.000000,1.000000,2.000000,2.000000,394522.613263,49.000000,2.000000
315789.41101074,234928.36181641,21.59499931,0,1,1,21.000000,-13.000000,0.000000,1.000000,2.000000,1.000000,394522.613263,123.000000,4.000000
315790.23999023,234926.31298828,19.62100029,0,1,1,21.000000,-14.000000,0.000000,1.000000,2.000000,2.000000,394522.622784,20.000000,2.000000
315790.17297363,234926.44482422,19.59700012,0,1,1,21.000000,-14.000000,0.000000,1.000000,2.000000,2.000000,394522.622784,121.000000,2.000000
315790.10595703,234926.57617188,19.60899925,0,1,1,21.000000,-14.000000,0.000000,1.000000,2.000000,2.000000,394522.622784,282.000000,2.000000
315790.04394531,234926.69921875,19.59399986,0,1,1,21.000000,-14.000000,0.000000,1.000000,2.000000,2.000000,394522.622784,470.000000,2.000000
315789.97595215,234926.83203125,19.59700012,0,1,1,21.000000,-13.000000,0.000000,1.000000,1.000000,1.000000,394522.622784,354.000000,2.000000
315789.91296387,234926.95800781,19.59300041,0,1,1,21.000000,-13.000000,0.000000,1.000000,2.000000,1.000000,394522.622784,427.000000,4.000000
315789.85205078,234927.07714844,19.59099960,0,1,1,21.000000,-13.000000,0.000000,1.000000,3.000000,1.000000,394522.622784,201.000000,4.000000
315789.79003906,234927.20019531,19.57999992,0,1,1,21.000000,-13.000000,0.000000,1.000000,3.000000,1.000000,394522.622784,72.000000,4.000000
315789.71899414,234927.33789063,19.60300064,0,1,1,21.000000,-13.000000,0.000000,1.000000,3.000000,1.000000,394522.622784,16.000000,4.000000
315790.37402344,234925.76904297,19.59099960,0,1,1,21.000000,-14.000000,0.000000,1.000000,2.000000,2.000000,394522.632061,31.000000,2.000000
315790.30700684,234925.90087891,19.60700035,0,1,1,21.000000,-14.000000,0.000000,1.000000,2.000000,2.000000,394522.632061,199.000000,2.000000
315790.24194336,234926.02978516,19.61199951,0,1,1,21.000000,-14.000000,0.000000,1.000000,2.000000,2.000000,394522.632061,375.000000,2.000000
315790.18298340,234926.14697266,19.59900093,0,1,1,21.000000,-14.000000,0.000000,1.000000,2.000000,2.000000,394522.632061,461.000000,2.000000
315790.11596680,234926.27783203,19.60899925,0,1,1,21.000000,-14.000000,0.000000,1.000000,1.000000,1.000000,394522.632061,415.000000,2.000000
315790.05004883,234926.40722656,19.60499954,0,1,1,21.000000,-14.000000,0.000000,1.000000,1.000000,1.000000,394522.632061,342.000000,2.000000
315789.98205566,234926.54199219,19.59600067,0,1,1,21.000000,-14.000000,0.000000,1.000000,3.000000,1.000000,394522.632061,240.000000,4.000000
315789.84899902,234926.80322266,19.62299919,0,1,1,21.000000,-13.000000,0.000000,1.000000,3.000000,1.000000,394522.632061,9.000000,4.000000
315790.24694824,234925.62109375,19.59199905,0,1,1,21.000000,-14.000000,0.000000,1.000000,3.000000,1.000000,394522.641339,110.000000,4.000000
315790.18701172,234925.73876953,19.58099937,0,1,1,21.000000,-14.000000,0.000000,1.000000,3.000000,1.000000,394522.641339,35.000000,4.000000
315789.47302246,234928.54882813,21.57200050,0,1,1,22.000000,5.000000,0.000000,1.000000,2.000000,2.000000,394839.581768,125.000000,4.000000
315789.45104980,234928.56005859,21.57600021,0,1,1,22.000000,5.000000,0.000000,1.000000,2.000000,2.000000,394839.591534,154.000000,4.000000
315789.78198242,234927.80175781,19.62400055,0,1,1,22.000000,5.000000,0.000000,1.000000,2.000000,2.000000,394839.600811,27.000000,4.000000
315789.72302246,234927.92822266,19.57699966,0,1,1,22.000000,5.000000,0.000000,1.000000,2.000000,2.000000,394839.600811,121.000000,2.000000
315789.66101074,234928.05078125,19.58600044,0,1,1,22.000000,5.000000,0.000000,1.000000,2.000000,2.000000,394839.600811,279.000000,2.000000
315789.59997559,234928.17285156,19.58799934,0,1,1,22.000000,5.000000,0.000000,1.000000,2.000000,2.000000,394839.600811,351.000000,2.000000
315789.53198242,234928.31103516,19.58200073,0,1,1,22.000000,5.000000,0.000000,1.000000,2.000000,1.000000,394839.600811,242.000000,4.000000
315789.46704102,234928.44091797,19.58699989,0,1,1,22.000000,5.000000,0.000000,1.000000,3.000000,2.000000,394839.600811,58.000000,4.000000
315789.82604980,234927.55712891,19.59499931,0,1,1,22.000000,5.000000,0.000000,1.000000,2.000000,2.000000,394839.610089,57.000000,4.000000
315789.75695801,234927.69580078,19.58600044,0,1,1,22.000000,5.000000,0.000000,1.000000,2.000000,2.000000,394839.610089,252.000000,4.000000
315789.69702148,234927.81787109,19.58699989,0,1,1,22.000000,5.000000,0.000000,1.000000,3.000000,2.000000,394839.610089,431.000000,4.000000
315789.62902832,234927.95507813,19.58399963,0,1,1,22.000000,5.000000,0.000000,1.000000,3.000000,2.000000,394839.610089,385.000000,4.000000
315789.56896973,234928.07617188,19.57999992,0,1,1,22.000000,5.000000,0.000000,1.000000,2.000000,1.000000,394839.610089,185.000000,4.000000
315789.50598145,234928.20507813,19.56599998,0,1,1,22.000000,5.000000,0.000000,1.000000,2.000000,1.000000,394839.610089,39.000000,4.000000
315789.44604492,234928.32324219,19.58900070,0,1,1,22.000000,5.000000,0.000000,1.000000,2.000000,1.000000,394839.610089,8.000000,4.000000
315789.93896484,234927.17187500,19.55800056,0,1,1,22.000000,5.000000,0.000000,1.000000,2.000000,2.000000,394839.619366,45.000000,4.000000
315789.87805176,234927.29394531,19.58200073,0,1,1,22.000000,5.000000,0.000000,1.000000,2.000000,2.000000,394839.619366,193.000000,4.000000
315789.81494141,234927.42089844,19.57699966,0,1,1,22.000000,5.000000,0.000000,1.000000,3.000000,2.000000,394839.619366,308.000000,4.000000
315789.75598145,234927.53906250,19.58300018,0,1,1,22.000000,5.000000,0.000000,1.000000,3.000000,2.000000,394839.619366,342.000000,4.000000
315789.68896484,234927.67480469,19.58200073,0,1,1,22.000000,5.000000,0.000000,1.000000,2.000000,1.000000,394839.619366,254.000000,4.000000
315789.62402344,234927.80810547,19.57799911,0,1,1,22.000000,5.000000,0.000000,1.000000,2.000000,1.000000,394839.619366,42.000000,4.000000
315789.56005859,234927.93212891,19.61100006,0,1,1,22.000000,5.000000,0.000000,1.000000,2.000000,1.000000,394839.619366,10.000000,4.000000
315789.92297363,234927.03613281,19.58399963,0,1,1,22.000000,5.000000,0.000000,1.000000,2.000000,2.000000,394839.628643,230.000000,2.000000
315789.86096191,234927.16210938,19.58300018,0,1,1,22.000000,5.000000,0.000000,1.000000,2.000000,1.000000,394839.628643,206.000000,4.000000
315789.79699707,234927.29492188,19.55999947,0,1,1,22.000000,5.000000,0.000000,1.000000,2.000000,1.000000,394839.628643,38.000000,4.000000
315789.73303223,234927.42089844,19.57799911,0,1,1,22.000000,5.000000,0.000000,1.000000,2.000000,1.000000,394839.628643,12.000000,4.000000
315790.11596680,234926.64892578,19.56200027,0,1,1,22.000000,5.000000,0.000000,1.000000,2.000000,2.000000,394839.628643,32.000000,2.000000
315790.05603027,234926.76708984,19.59199905,0,1,1,22.000000,5.000000,0.000000,1.000000,2.000000,2.000000,394839.628643,117.000000,2.000000
315789.98901367,234926.90283203,19.58900070,0,1,1,22.000000,5.000000,0.000000,1.000000,2.000000,2.000000,394839.628643,319.000000,2.000000
315790.19702148,234926.16210938,19.58300018,0,1,1,22.000000,5.000000,0.000000,1.000000,2.000000,2.000000,394839.637921,23.000000,2.000000
315790.13500977,234926.28710938,19.57799911,0,1,1,22.000000,5.000000,0.000000,1.000000,2.000000,2.000000,394839.637921,121.000000,2.000000
315790.06701660,234926.42382813,19.58699989,0,1,1,22.000000,5.000000,0.000000,1.000000,2.000000,2.000000,394839.637921,465.000000,2.000000
315790.00805664,234926.54296875,19.58699989,0,1,1,22.000000,5.000000,0.000000,1.000000,3.000000,2.000000,394839.637921,356.000000,4.000000
315789.94702148,234926.66894531,19.58200073,0,1,1,22.000000,5.000000,0.000000,1.000000,2.000000,1.000000,394839.638409,264.000000,4.000000
315789.88598633,234926.79492188,19.56699944,0,1,1,22.000000,5.000000,0.000000,1.000000,2.000000,1.000000,394839.638409,96.000000,4.000000
315789.81799316,234926.93212891,19.55599976,0,1,1,22.000000,5.000000,0.000000,1.000000,2.000000,1.000000,394839.638409,18.000000,4.000000
315790.27905273,234925.88378906,19.57399940,0,1,1,22.000000,5.000000,0.000000,1.000000,2.000000,2.000000,394839.647686,42.000000,2.000000
315790.22094727,234926.00097656,19.57999992,0,1,1,22.000000,5.000000,0.000000,1.000000,2.000000,2.000000,394839.647686,143.000000,2.000000
315790.15405273,234926.13818359,19.58200073,0,1,1,22.000000,5.000000,0.000000,1.000000,2.000000,2.000000,394839.647686,430.000000,2.000000
315790.08898926,234926.26904297,19.58300018,0,1,1,22.000000,5.000000,0.000000,1.000000,2.000000,2.000000,394839.647686,471.000000,2.000000
315790.02600098,234926.39892578,19.56999969,0,1,1,22.000000,5.000000,0.000000,1.000000,2.000000,1.000000,394839.647686,230.000000,4.000000
315789.96301270,234926.52587891,19.57399940,0,1,1,22.000000,5.000000,0.000000,1.000000,2.000000,1.000000,394839.647686,68.000000,4.000000
315789.89794922,234926.65283203,19.59900093,0,1,1,22.000000,5.000000,0.000000,1.000000,2.000000,1.000000,394839.647686,13.000000,4.000000
315790.31994629,234925.59277344,19.58099937,0,1,1,22.000000,5.000000,0.000000,1.000000,3.000000,2.000000,394839.656964,58.000000,4.000000
315790.25500488,234925.72314453,19.58499908,0,1,1,22.000000,5.000000,0.000000,1.000000,3.000000,2.000000,394839.656964,304.000000,4.000000
315790.19396973,234925.85009766,19.56900024,0,1,1,22.000000,5.000000,0.000000,1.000000,2.000000,1.000000,394839.656964,188.000000,4.000000
315790.13403320,234925.97314453,19.55800056,0,1,1,22.000000,5.000000,0.000000,1.000000,2.000000,1.000000,394839.656964,56.000000,4.000000
315790.07104492,234926.10205078,19.55400085,0,1,1,22.000000,5.000000,0.000000,1.000000,2.000000,1.000000,394839.656964,14.000000,4.000000
315790.21801758,234925.68701172,19.57500076,0,1,1,22.000000,5.000000,0.000000,1.000000,2.000000,1.000000,394839.666241,205.000000,4.000000
315790.15002441,234925.82714844,19.56299973,0,1,1,22.000000,5.000000,0.000000,1.000000,2.000000,1.000000,394839.666241,58.000000,4.000000
315790.09094238,234925.95312500,19.51600075,0,1,1,22.000000,5.000000,0.000000,1.000000,3.000000,1.000000,394839.666241,15.000000,4.000000
315789.46704102,234928.38916016,21.59099960,0,1,1,23.000000,22.000000,0.000000,1.000000,2.000000,2.000000,395103.357647,140.000000,4.000000
