//X,Y,Z,Rf,Gf,Bf,Point Source ID,Scan Angle Rank,Flightline Edge,Scan Direction,Number of Returns,Return Number,Time,Intensity,Classification
315788.37194824,234938.79199219,21.38899994,0,0.333333,1,13.000000,25.000000,0.000000,1.000000,1.000000,1.000000,392486.561627,120.000000,2.000000
315788.47802734,234938.92285156,21.38999939,0,0.333333,1,13.000000,25.000000,0.000000,1.000000,2.000000,2.000000,392486.561627,103.000000,2.000000
315788.57104492,234939.03808594,21.38599968,0,0.333333,1,13.000000,25.000000,0.000000,1.000000,2.000000,2.000000,392486.561627,55.000000,2.000000
315788.67199707,234939.16308594,21.39100075,0,0.333333,1,13.000000,25.000000,0.000000,1.000000,2.000000,2.000000,392486.561627,72.000000,2.000000
315788.76696777,234939.27880859,21.37999916,0,0.333333,1,13.000000,25.000000,0.000000,1.000000,2.000000,2.000000,392486.561627,69.000000,2.000000
315788.86303711,234939.39892578,21.38800049,0,0.333333,1,13.000000,25.000000,0.000000,1.000000,1.000000,1.000000,392486.561627,126.000000,2.000000
315788.95703125,234939.51513672,21.38599968,0,0.333333,1,13.000000,25.000000,0.000000,1.000000,1.000000,1.000000,392486.561627,112.000000,2.000000
315789.05004883,234939.63085938,21.41600037,0,0.333333,1,13.000000,25.000000,0.000000,1.000000,1.000000,1.000000,392486.561627,196.000000,2.000000
315789.16198730,234939.76806641,21.37199974,0,0.333333,1,13.000000,25.000000,0.000000,1.000000,1.000000,1.000000,392486.561627,106.000000,2.000000
315789.25805664,234939.88623047,21.38400078,0,0.333333,1,13.000000,25.000000,0.000000,1.000000,1.000000,1.000000,392486.561627,135.000000,2.000000
315787.98303223,234938.53222656,21.40699959,0,0.333333,1,13.000000,25.000000,0.000000,1.000000,1.000000,1.000000,392486.571026,122.000000,2.000000
315788.07995605,234938.65185547,21.39500046,0,0.333333,1,13.000000,25.000000,0.000000,1.000000,1.000000,1.000000,392486.571026,108.000000,2.000000
315788.18103027,234938.77685547,21.40800095,0,0.333333,1,13.000000,25.000000,0.000000,1.000000,1.000000,1.000000,392486.571026,90.000000,2.000000
315788.27905273,234938.89697266,21.38800049,0,0.333333,1,13.000000,25.000000,0.000000,1.000000,2.000000,2.000000,392486.571026,36.000000,2.000000
315788.37500000,234939.01611328,21.38800049,0,0.333333,1,13.000000,25.000000,0.000000,1.000000,1.000000,1.000000,392486.571026,122.000000,2.000000
315788.47204590,234939.13623047,21.37199974,0,0.333333,1,13.000000,25.000000,0.000000,1.000000,2.000000,2.000000,392486.571026,40.000000,2.000000
315788.57397461,234939.26220703,21.37999916,0,0.333333,1,13.000000,25.000000,0.000000,1.000000,1.000000,1.000000,392486.571026,132.000000,2.000000
315788.66503906,234939.37500000,21.40699959,0,0.333333,1,13.000000,25.000000,0.000000,1.000000,1.000000,1.000000,392486.571026,245.000000,2.000000
315788.75305176,234939.48486328,21.43300056,0,0.333333,1,13.000000,25.000000,0.000000,1.000000,1.000000,1.000000,392486.571026,350.000000,2.000000
315788.87097168,234939.62890625,21.37599945,0,0.333333,1,13.000000,25.000000,0.000000,1.000000,1.000000,1.000000,392486.571026,128.000000,2.000000
315788.97204590,234939.75292969,21.36499977,0,0.333333,1,13.000000,25.000000,0.000000,1.000000,1.000000,1.000000,392486.571026,106.000000,2.000000
315789.06201172,234939.86376953,21.36899948,0,0.333333,1,13.000000,25.000000,0.000000,1.000000,1.000000,1.000000,392486.571026,95.000000,2.000000
315789.15795898,234939.98291016,21.37199974,0,0.333333,1,13.000000,25.000000,0.000000,1.000000,1.000000,1.000000,392486.571026,94.000000,2.000000
315789.25402832,234940.10302734,21.38100052,0,0.333333,1,13.000000,25.000000,0.000000,1.000000,1.000000,1.000000,392486.571026,126.000000,2.000000
315790.90502930,234942.14501953,21.46100044,0,0.333333,1,13.000000,26.000000,0.000000,1.000000,1.000000,1.000000,392486.571026,15.000000,4.000000
315790.68200684,234942.06884766,21.26199913,0,0.333333,1,13.000000,26.000000,0.000000,1.000000,2.000000,2.000000,392486.580426,15.000000,4.000000
315787.80798340,234938.52001953,21.39900017,0,0.333333,1,13.000000,25.000000,0.000000,1.000000,1.000000,1.000000,392486.580304,121.000000,2.000000
315787.90405273,234938.63818359,21.38899994,0,0.333333,1,13.000000,25.000000,0.000000,1.000000,1.000000,1.000000,392486.580304,103.000000,2.000000
315787.99499512,234938.75000000,21.40299988,0,0.333333,1,13.000000,25.000000,0.000000,1.000000,2.000000,2.000000,392486.580304,61.000000,2.000000
315788.09399414,234938.87304688,21.40399933,0,0.333333,1,13.000000,25.000000,0.000000,1.000000,1.000000,1.000000,392486.580304,104.000000,2.000000
315788.21301270,234939.01904297,21.35400009,0,0.333333,1,13.000000,25.000000,0.000000,1.000000,2.000000,2.000000,392486.580304,33.000000,2.000000
315788.29602051,234939.12207031,21.38500023,0,0.333333,1,13.000000,25.000000,0.000000,1.000000,1.000000,1.000000,392486.580304,159.000000,2.000000
315788.40295410,234939.25488281,21.37299919,0,0.333333,1,13.000000,25.000000,0.000000,1.000000,1.000000,1.000000,392486.580304,145.000000,2.000000
315788.49597168,234939.36914063,21.37299919,0,0.333333,1,13.000000,25.000000,0.000000,1.000000,1.000000,1.000000,392486.580304,270.000000,2.000000
315788.58996582,234939.48583984,21.37700081,0,0.333333,1,13.000000,25.000000,0.000000,1.000000,1.000000,1.000000,392486.580304,126.000000,2.000000
315788.67004395,234939.58593750,21.41900063,0,0.333333,1,13.000000,25.000000,0.000000,1.000000,1.000000,1.000000,392486.580426,159.000000,2.000000
315788.79003906,234939.73291016,21.36899948,0,0.333333,1,13.000000,25.000000,0.000000,1.000000,1.000000,1.000000,392486.580426,129.000000,2.000000
315788.88793945,234939.85400391,21.37199974,0,0.333333,1,13.000000,25.000000,0.000000,1.000000,1.000000,1.000000,392486.580426,111.000000,2.000000
315788.98498535,234939.97314453,21.37100029,0,0.333333,1,13.000000,25.000000,0.000000,1.000000,1.000000,1.000000,392486.580426,148.000000,2.000000
315789.08703613,234940.09912109,21.36800003,0,0.333333,1,13.000000,25.000000,0.000000,1.000000,1.000000,1.000000,392486.580426,120.000000,2.000000
315789.18505859,234940.22119141,21.36100006,0,0.333333,1,13.000000,25.000000,0.000000,1.000000,1.000000,1.000000,392486.580426,105.000000,2.000000
315790.74499512,234942.14892578,21.37199974,0,0.333333,1,13.000000,26.000000,0.000000,1.000000,2.000000,2.000000,392486.580426,38.000000,2.000000
315790.85803223,234942.28808594,21.32900047,0,0.333333,1,13.000000,26.000000,0.000000,1.000000,2.000000,2.000000,392486.580426,22.000000,2.000000
315790.95300293,234942.40576172,21.36100006,0,0.333333,1,13.000000,26.000000,0.000000,1.000000,1.000000,1.000000,392486.580426,9.000000,2.000000
315791.44494629,234943.01318359,21.33399963,0,0.333333,1,13.000000,26.000000,0.000000,1.000000,1.000000,1.000000,392486.580426,14.000000,2.000000
315787.54797363,234938.39599609,21.59700012,0,0.333333,1,13.000000,25.000000,0.000000,1.000000,1.000000,1.000000,392486.589703,126.000000,4.000000
315787.70898438,234938.59082031,21.40800095,0,0.333333,1,13.000000,25.000000,0.000000,1.000000,2.000000,2.000000,392486.589703,39.000000,2.000000
315787.90795898,234938.83593750,21.39399910,0,0.333333,1,13.000000,25.000000,0.000000,1.000000,2.000000,2.000000,392486.589703,87.000000,2.000000
315788.00402832,234938.95507813,21.38299942,0,0.333333,1,13.000000,25.000000,0.000000,1.000000,2.000000,2.000000,392486.589703,110.000000,2.000000
315788.10205078,234939.07519531,21.38100052,0,0.333333,1,13.000000,25.000000,0.000000,1.000000,1.000000,1.000000,392486.589703,107.000000,2.000000
315788.19702148,234939.19287109,21.37599945,0,0.333333,1,13.000000,25.000000,0.000000,1.000000,1.000000,1.000000,392486.589703,129.000000,2.000000
315788.29602051,234939.31591797,21.38100052,0,0.333333,1,13.000000,25.000000,0.000000,1.000000,1.000000,1.000000,392486.589703,125.000000,2.000000
315788.39697266,234939.43994141,21.37800026,0,0.333333,1,13.000000,25.000000,0.000000,1.000000,1.000000,1.000000,392486.589703,133.000000,2.000000
315788.49499512,234939.56201172,21.37299919,0,0.333333,1,13.000000,25.000000,0.000000,1.000000,2.000000,1.000000,392486.589703,150.000000,4.000000
315788.59802246,234939.68798828,21.37000084,0,0.333333,1,13.000000,25.000000,0.000000,1.000000,1.000000,1.000000,392486.589703,132.000000,2.000000
315788.69201660,234939.80517578,21.37000084,0,0.333333,1,13.000000,25.000000,0.000000,1.000000,1.000000,1.000000,392486.589703,116.000000,2.000000
315788.78796387,234939.92285156,21.36000061,0,0.333333,1,13.000000,25.000000,0.000000,1.000000,1.000000,1.000000,392486.589703,125.000000,2.000000
315788.88403320,234940.04101563,21.35799980,0,0.333333,1,13.000000,25.000000,0.000000,1.000000,1.000000,1.000000,392486.589703,110.000000,2.000000
315788.98303223,234940.16503906,21.36599922,0,0.333333,1,13.000000,25.000000,0.000000,1.000000,1.000000,1.000000,392486.589703,157.000000,2.000000
315789.08398438,234940.28906250,21.37500000,0,0.333333,1,13.000000,25.000000,0.000000,1.000000,1.000000,1.000000,392486.589703,113.000000,2.000000
315789.16894531,234940.39599609,21.39800072,0,0.333333,1,13.000000,25.000000,0.000000,1.000000,1.000000,1.000000,392486.589703,116.000000,2.000000
315790.47302246,234942.00488281,21.31999969,0,0.333333,1,13.000000,26.000000,0.000000,1.000000,2.000000,2.000000,392486.589825,20.000000,2.000000
315790.66503906,234942.24316406,21.34900093,0,0.333333,1,13.000000,26.000000,0.000000,1.000000,1.000000,1.000000,392486.589825,56.000000,2.000000
315790.75903320,234942.35888672,21.33699989,0,0.333333,1,13.000000,26.000000,0.000000,1.000000,1.000000,1.000000,392486.589825,57.000000,2.000000
315791.06494141,234942.73681641,21.30800056,0,0.333333,1,13.000000,26.000000,0.000000,1.000000,1.000000,1.000000,392486.589825,22.000000,2.000000
315791.15698242,234942.85107422,21.33099937,0,0.333333,1,13.000000,26.000000,0.000000,1.000000,1.000000,1.000000,392486.589825,20.000000,2.000000
315791.24804688,234942.96289063,21.35400009,0,0.333333,1,13.000000,26.000000,0.000000,1.000000,1.000000,1.000000,392486.589825,10.000000,2.000000
315791.36596680,234943.10888672,21.29999924,0,0.333333,1,13.000000,26.000000,0.000000,1.000000,1.000000,1.000000,392486.589825,29.000000,2.000000
315787.83203125,234939.05615234,21.39900017,0,0.333333,1,13.000000,25.000000,0.000000,1.000000,1.000000,1.000000,392486.599102,113.000000,2.000000
315787.93298340,234939.18017578,21.38599968,0,0.333333,1,13.000000,25.000000,0.000000,1.000000,1.000000,1.000000,392486.599102,140.000000,2.000000
315787.22802734,234938.30908203,21.45700073,0,0.333333,1,13.000000,25.000000,0.000000,1.000000,1.000000,1.000000,392486.599102,135.000000,4.000000
315787.34497070,234938.45312500,21.40800095,0,0.333333,1,13.000000,25.000000,0.000000,1.000000,1.000000,1.000000,392486.599102,112.000000,2.000000
315787.42395020,234938.55175781,21.45299911,0,0.333333,1,13.000000,25.000000,0.000000,1.000000,2.000000,2.000000,392486.599102,49.000000,2.000000
315787.54003906,234938.69384766,21.39599991,0,0.333333,1,13.000000,25.000000,0.000000,1.000000,1.000000,1.000000,392486.599102,100.000000,2.000000
315787.63903809,234938.81494141,21.36499977,0,0.333333,1,13.000000,25.000000,0.000000,1.000000,2.000000,2.000000,392486.599102,41.000000,2.000000
315787.73303223,234938.93212891,21.39399910,0,0.333333,1,13.000000,25.000000,0.000000,1.000000,1.000000,1.000000,392486.599102,125.000000,2.000000
315788.02905273,234939.29882813,21.39100075,0,0.333333,1,13.000000,25.000000,0.000000,1.000000,1.000000,1.000000,392486.599102,119.000000,2.000000
315788.13000488,234939.42285156,21.37599945,0,0.333333,1,13.000000,25.000000,0.000000,1.000000,1.000000,1.000000,392486.599102,122.000000,2.000000
315788.22302246,234939.53808594,21.37800026,0,0.333333,1,13.000000,25.000000,0.000000,1.000000,1.000000,1.000000,392486.599102,123.000000,2.000000
315788.32397461,234939.66308594,21.36499977,0,0.333333,1,13.000000,25.000000,0.000000,1.000000,1.000000,1.000000,392486.599102,117.000000,2.000000
315788.42004395,234939.78222656,21.36899948,0,0.333333,1,13.000000,25.000000,0.000000,1.000000,1.000000,1.000000,392486.599102,113.000000,2.000000
315788.52404785,234939.91015625,21.37000084,0,0.333333,1,13.000000,25.000000,0.000000,1.000000,1.000000,1.000000,392486.599102,132.000000,2.000000
315788.61804199,234940.02587891,21.36899948,0,0.333333,1,13.000000,25.000000,0.000000,1.000000,1.000000,1.000000,392486.599102,128.000000,2.000000
315788.72399902,234940.15722656,21.36499977,0,0.333333,1,13.000000,25.000000,0.000000,1.000000,1.000000,1.000000,392486.599102,131.000000,2.000000
315788.81396484,234940.26806641,21.36599922,0,0.333333,1,13.000000,25.000000,0.000000,1.000000,1.000000,1.000000,392486.599102,132.000000,2.000000
315788.91101074,234940.38916016,21.36199951,0,0.333333,1,13.000000,25.000000,0.000000,1.000000,1.000000,1.000000,392486.599102,101.000000,2.000000
315789.00195313,234940.50195313,21.37199974,0,0.333333,1,13.000000,25.000000,0.000000,1.000000,1.000000,1.000000,392486.599102,103.000000,2.000000
315789.08996582,234940.61083984,21.42900085,0,0.333333,1,13.000000,25.000000,0.000000,1.000000,1.000000,1.000000,392486.599102,90.000000,4.000000
315790.10095215,234941.85986328,21.33600044,0,0.333333,1,13.000000,26.000000,0.000000,1.000000,2.000000,2.000000,392486.599102,45.000000,2.000000
315790.22998047,234942.01708984,21.22699928,0,0.333333,1,13.000000,26.000000,0.000000,1.000000,2.000000,2.000000,392486.599102,13.000000,4.000000
315790.28698730,234942.09082031,21.35799980,0,0.333333,1,13.000000,26.000000,0.000000,1.000000,1.000000,1.000000,392486.599102,26.000000,2.000000
315790.39294434,234942.22021484,21.31200027,0,0.333333,1,13.000000,26.000000,0.000000,1.000000,1.000000,1.000000,392486.599102,25.000000,2.000000
315790.49194336,234942.34277344,21.32600021,0,0.333333,1,13.000000,26.000000,0.000000,1.000000,1.000000,1.000000,392486.599102,25.000000,2.000000
315790.57995605,234942.45312500,21.37199974,0,0.333333,1,13.000000,26.000000,0.000000,1.000000,1.000000,1.000000,392486.599102,401.000000,2.000000
315790.67504883,234942.57080078,21.38299942,0,0.333333,1,13.000000,26.000000,0.000000,1.000000,1.000000,1.000000,392486.599102,48.000000,2.000000
315790.89099121,234942.83691406,21.31800079,0,0.333333,1,13.000000,26.000000,0.000000,1.000000,1.000000,1.000000,392486.599225,41.000000,2.000000
315790.97900391,234942.94677734,21.33900070,0,0.333333,1,13.000000,26.000000,0.000000,1.000000,1.000000,1.000000,392486.599225,34.000000,2.000000
315791.07897949,234943.06884766,21.33399963,0,0.333333,1,13.000000,26.000000,0.000000,1.000000,1.000000,1.000000,392486.599225,30.000000,2.000000
315791.17895508,234943.19287109,21.32799911,0,0.333333,1,13.000000,26.000000,0.000000,1.000000,1.000000,1.000000,392486.599225,72.000000,2.000000
315791.28405762,234943.32177734,21.32999992,0,0.333333,1,13.000000,26.000000,0.000000,1.000000,1.000000,1.000000,392486.599225,129.000000,2.000000
315789.82202148,234941.73876953,21.32999992,0,0.333333,1,13.000000,26.000000,0.000000,1.000000,2.000000,2.000000,392486.608502,65.000000,2.000000
315787.26000977,234938.57080078,21.40699959,0,0.333333,1,13.000000,25.000000,0.000000,1.000000,1.000000,1.000000,392486.608502,125.000000,2.000000
315787.35498047,234938.68896484,21.43799973,0,0.333333,1,13.000000,25.000000,0.000000,1.000000,2.000000,2.000000,392486.608502,91.000000,2.000000
315787.45800781,234938.81591797,21.40500069,0,0.333333,1,13.000000,25.000000,0.000000,1.000000,1.000000,1.000000,392486.608502,151.000000,2.000000
315787.56604004,234938.94824219,21.38899994,0,0.333333,1,13.000000,25.000000,0.000000,1.000000,2.000000,2.000000,392486.608502,38.000000,2.000000
315787.65405273,234939.05810547,21.39699936,0,0.333333,1,13.000000,25.000000,0.000000,1.000000,1.000000,1.000000,392486.608502,137.000000,2.000000
315787.75402832,234939.18115234,21.38599968,0,0.333333,1,13.000000,25.000000,0.000000,1.000000,1.000000,1.000000,392486.608502,113.000000,2.000000
315787.84399414,234939.29296875,21.39800072,0,0.333333,1,13.000000,25.000000,0.000000,1.000000,1.000000,1.000000,392486.608502,122.000000,2.000000
315787.94995117,234939.42382813,21.38599968,0,0.333333,1,13.000000,25.000000,0.000000,1.000000,1.000000,1.000000,392486.608502,121.000000,2.000000
315788.04895020,234939.54687500,21.38199997,0,0.333333,1,13.000000,25.000000,0.000000,1.000000,1.000000,1.000000,392486.608502,123.000000,2.000000
315788.14904785,234939.66992188,21.37100029,0,0.333333,1,13.000000,25.000000,0.000000,1.000000,1.000000,1.000000,392486.608502,115.000000,2.000000
315788.24902344,234939.79394531,21.37700081,0,0.333333,1,13.000000,25.000000,0.000000,1.000000,1.000000,1.000000,392486.608502,115.000000,2.000000
315788.34497070,234939.91308594,21.37700081,0,0.333333,1,13.000000,25.000000,0.000000,1.000000,1.000000,1.000000,392486.608502,141.000000,2.000000
315788.43603516,234940.02490234,21.37599945,0,0.333333,1,13.000000,25.000000,0.000000,1.000000,1.000000,1.000000,392486.608502,123.000000,2.000000
315788.53198242,234940.14404297,21.37800026,0,0.333333,1,13.000000,25.000000,0.000000,1.000000,1.000000,1.000000,392486.608502,122.000000,2.000000
315788.63598633,234940.27294922,21.36800003,0,0.333333,1,13.000000,25.000000,0.000000,1.000000,1.000000,1.000000,392486.608502,138.000000,2.000000
315788.73901367,234940.39990234,21.37299919,0,0.333333,1,13.000000,25.000000,0.000000,1.000000,1.000000,1.000000,392486.608502,120.000000,2.000000
315788.83105469,234940.51318359,21.37000084,0,0.333333,1,13.000000,25.000000,0.000000,1.000000,1.000000,1.000000,392486.608502,135.000000,2.000000
315788.93298340,234940.64013672,21.37700081,0,0.333333,1,13.000000,25.000000,0.000000,1.000000,1.000000,1.000000,392486.608502,135.000000,2.000000
315788.99401855,234940.71923828,21.47900009,0,0.333333,1,13.000000,25.000000,0.000000,1.000000,2.000000,1.000000,392486.608502,157.000000,4.000000
315789.91699219,234941.85693359,21.33099937,0,0.333333,1,13.000000,26.000000,0.000000,1.000000,2.000000,2.000000,392486.608502,97.000000,2.000000
315790.01293945,234941.97607422,21.34099960,0,0.333333,1,13.000000,26.000000,0.000000,1.000000,2.000000,2.000000,392486.608502,52.000000,2.000000
315790.11999512,234942.10791016,21.33699989,0,0.333333,1,13.000000,26.000000,0.000000,1.000000,1.000000,1.000000,392486.608502,44.000000,2.000000
315790.21398926,234942.22509766,21.33699989,0,0.333333,1,13.000000,26.000000,0.000000,1.000000,1.000000,1.000000,392486.608502,27.000000,2.000000
315790.31396484,234942.34814453,21.35199928,0,0.333333,1,13.000000,26.000000,0.000000,1.000000,1.000000,1.000000,392486.608502,16.000000,2.000000
315790.41503906,234942.47314453,21.31800079,0,0.333333,1,13.000000,26.000000,0.000000,1.000000,1.000000,1.000000,392486.608502,18.000000,2.000000
315790.50000000,234942.57910156,21.35899925,0,0.333333,1,13.000000,26.000000,0.000000,1.000000,1.000000,1.000000,392486.608502,23.000000,2.000000
315790.59594727,234942.69677734,21.35600090,0,0.333333,1,13.000000,26.000000,0.000000,1.000000,1.000000,1.000000,392486.608502,21.000000,2.000000
315790.71704102,234942.84521484,21.30400085,0,0.333333,1,13.000000,26.000000,0.000000,1.000000,1.000000,1.000000,392486.608502,12.000000,2.000000
315790.80603027,234942.95703125,21.33300018,0,0.333333,1,13.000000,26.000000,0.000000,1.000000,1.000000,1.000000,392486.608502,36.000000,2.000000
315790.90295410,234943.07714844,21.33699989,0,0.333333,1,13.000000,26.000000,0.000000,1.000000,1.000000,1.000000,392486.608502,44.000000,2.000000
315791.00903320,234943.20800781,21.32399940,0,0.333333,1,13.000000,26.000000,0.000000,1.000000,1.000000,1.000000,392486.608502,116.000000,2.000000
315791.10302734,234943.32519531,21.33600044,0,0.333333,1,13.000000,26.000000,0.000000,1.000000,1.000000,1.000000,392486.608502,91.000000,2.000000
315791.18298340,234943.42480469,21.37299919,0,0.333333,1,13.000000,26.000000,0.000000,1.000000,1.000000,1.000000,392486.608502,229.000000,2.000000
315791.27905273,234943.54394531,21.37899971,0,0.333333,1,13.000000,26.000000,0.000000,1.000000,1.000000,1.000000,392486.608502,192.000000,2.000000
315787.16601563,234938.74902344,21.40500069,0,0.333333,1,13.000000,25.000000,0.000000,1.000000,1.000000,1.000000,392486.617779,124.000000,2.000000
315787.24804688,234938.85107422,21.44700050,0,0.333333,1,13.000000,25.000000,0.000000,1.000000,1.000000,1.000000,392486.617779,341.000000,2.000000
315787.32202148,234938.94384766,21.50600052,0,0.333333,1,13.000000,25.000000,0.000000,1.000000,1.000000,1.000000,392486.617779,134.000000,4.000000
315787.45703125,234939.10791016,21.40399933,0,0.333333,1,13.000000,25.000000,0.000000,1.000000,2.000000,2.000000,392486.617779,99.000000,2.000000
315787.55895996,234939.23388672,21.39999962,0,0.333333,1,13.000000,25.000000,0.000000,1.000000,1.000000,1.000000,392486.617779,128.000000,2.000000
315787.64196777,234939.33789063,21.43600082,0,0.333333,1,13.000000,25.000000,0.000000,1.000000,1.000000,1.000000,392486.617779,405.000000,2.000000
315787.75695801,234939.47998047,21.38400078,0,0.333333,1,13.000000,25.000000,0.000000,1.000000,1.000000,1.000000,392486.617779,133.000000,2.000000
315787.85205078,234939.59619141,21.39299965,0,0.333333,1,13.000000,25.000000,0.000000,1.000000,1.000000,1.000000,392486.617779,112.000000,2.000000
315787.94897461,234939.71582031,21.37999916,0,0.333333,1,13.000000,25.000000,0.000000,1.000000,1.000000,1.000000,392486.617779,105.000000,2.000000
315788.04296875,234939.83300781,21.37999916,0,0.333333,1,13.000000,25.000000,0.000000,1.000000,1.000000,1.000000,392486.617779,109.000000,2.000000
315788.14404297,234939.95800781,21.37500000,0,0.333333,1,13.000000,25.000000,0.000000,1.000000,1.000000,1.000000,392486.617779,111.000000,2.000000
315788.25097656,234940.08984375,21.36899948,0,0.333333,1,13.000000,25.000000,0.000000,1.000000,1.000000,1.000000,392486.617779,125.000000,2.000000
315788.34301758,234940.20410156,21.37299919,0,0.333333,1,13.000000,25.000000,0.000000,1.000000,1.000000,1.000000,392486.617901,135.000000,2.000000
315788.44494629,234940.33105469,21.37299919,0,0.333333,1,13.000000,25.000000,0.000000,1.000000,1.000000,1.000000,392486.617901,117.000000,2.000000
315788.53796387,234940.44580078,21.36899948,0,0.333333,1,13.000000,25.000000,0.000000,1.000000,1.000000,1.000000,392486.617901,126.000000,2.000000
315788.63403320,234940.56396484,21.37400055,0,0.333333,1,13.000000,25.000000,0.000000,1.000000,1.000000,1.000000,392486.617901,132.000000,2.000000
315788.71398926,234940.66503906,21.41600037,0,0.333333,1,13.000000,25.000000,0.000000,1.000000,1.000000,1.000000,392486.617901,254.000000,2.000000
315788.83398438,234940.81201172,21.36300087,0,0.333333,1,13.000000,25.000000,0.000000,1.000000,1.000000,1.000000,392486.617901,143.000000,2.000000
315788.93603516,234940.93798828,21.35499954,0,0.333333,1,13.000000,25.000000,0.000000,1.000000,1.000000,1.000000,392486.617901,143.000000,2.000000
315789.03601074,234941.06103516,21.34399986,0,0.333333,1,13.000000,25.000000,0.000000,1.000000,2.000000,2.000000,392486.617901,91.000000,4.000000
315789.32104492,234941.41503906,21.36000061,0,0.333333,1,13.000000,25.000000,0.000000,1.000000,1.000000,1.000000,392486.617901,179.000000,2.000000
315789.63195801,234941.79882813,21.33200073,0,0.333333,1,13.000000,26.000000,0.000000,1.000000,2.000000,2.000000,392486.617901,44.000000,2.000000
315789.71997070,234941.90820313,21.34300041,0,0.333333,1,13.000000,26.000000,0.000000,1.000000,1.000000,1.000000,392486.617901,164.000000,2.000000
315789.82702637,234942.04101563,21.33499908,0,0.333333,1,13.000000,26.000000,0.000000,1.000000,2.000000,1.000000,392486.617901,159.000000,4.000000
315789.92504883,234942.16210938,21.32399940,0,0.333333,1,13.000000,26.000000,0.000000,1.000000,1.000000,1.000000,392486.617901,68.000000,2.000000
315790.01501465,234942.27392578,21.34199905,0,0.333333,1,13.000000,26.000000,0.000000,1.000000,1.000000,1.000000,392486.617901,37.000000,2.000000
315790.11694336,234942.39892578,21.30999947,0,0.333333,1,13.000000,26.000000,0.000000,1.000000,1.000000,1.000000,392486.617901,37.000000,2.000000
315790.21704102,234942.52294922,21.32799911,0,0.333333,1,13.000000,26.000000,0.000000,1.000000,1.000000,1.000000,392486.617901,31.000000,2.000000
315790.31604004,234942.64599609,21.33699989,0,0.333333,1,13.000000,26.000000,0.000000,1.000000,1.000000,1.000000,392486.617901,27.000000,2.000000
315790.41003418,234942.76220703,21.34300041,0,0.333333,1,13.000000,26.000000,0.000000,1.000000,1.000000,1.000000,392486.617901,26.000000,2.000000
315790.51501465,234942.89208984,21.32600021,0,0.333333,1,13.000000,26.000000,0.000000,1.000000,1.000000,1.000000,392486.617901,32.000000,2.000000
315790.61206055,234943.01220703,21.33099937,0,0.333333,1,13.000000,26.000000,0.000000,1.000000,1.000000,1.000000,392486.617901,34.000000,2.000000
315790.70495605,234943.12792969,21.33499908,0,0.333333,1,13.000000,26.000000,0.000000,1.000000,1.000000,1.000000,392486.617901,74.000000,2.000000
315790.80102539,234943.24609375,21.34099960,0,0.333333,1,13.000000,26.000000,0.000000,1.000000,1.000000,1.000000,392486.617901,105.000000,2.000000
315790.88696289,234943.35400391,21.37999916,0,0.333333,1,13.000000,26.000000,0.000000,1.000000,1.000000,1.000000,392486.617901,217.000000,2.000000
315790.98400879,234943.47509766,21.40399933,0,0.333333,1,13.000000,26.000000,0.000000,1.000000,1.000000,1.000000,392486.617901,235.000000,2.000000
315791.08605957,234943.60009766,21.38500023,0,0.333333,1,13.000000,26.000000,0.000000,1.000000,1.000000,1.000000,392486.617901,141.000000,2.000000
315791.20300293,234943.74414063,21.34499931,0,0.333333,1,13.000000,26.000000,0.000000,1.000000,1.000000,1.000000,392486.617901,103.000000,2.000000
315787.11901855,234938.84619141,21.42000008,0,0.333333,1,13.000000,25.000000,0.000000,1.000000,1.000000,1.000000,392486.627179,117.000000,2.000000
315787.20996094,234938.95800781,21.43400002,0,0.333333,1,13.000000,25.000000,0.000000,1.000000,1.000000,1.000000,392486.627179,460.000000,2.000000
315787.30395508,234939.07617188,21.44899940,0,0.333333,1,13.000000,25.000000,0.000000,1.000000,2.000000,2.000000,392486.627179,123.000000,2.000000
315787.41503906,234939.21191406,21.39900017,0,0.333333,1,13.000000,25.000000,0.000000,1.000000,1.000000,1.000000,392486.627179,136.000000,2.000000
315787.49499512,234939.31201172,21.44400024,0,0.333333,1,13.000000,25.000000,0.000000,1.000000,2.000000,2.000000,392486.627179,256.000000,2.000000
315787.58300781,234939.42089844,21.46599960,0,0.333333,1,13.000000,25.000000,0.000000,1.000000,1.000000,1.000000,392486.627179,220.000000,2.000000
315787.70397949,234939.56884766,21.39399910,0,0.333333,1,13.000000,25.000000,0.000000,1.000000,1.000000,1.000000,392486.627179,115.000000,2.000000
315787.81298828,234939.70312500,21.38100052,0,0.333333,1,13.000000,25.000000,0.000000,1.000000,1.000000,1.000000,392486.627179,132.000000,2.000000
315787.90795898,234939.82080078,21.37400055,0,0.333333,1,13.000000,25.000000,0.000000,1.000000,2.000000,1.000000,392486.627179,135.000000,4.000000
315788.00805664,234939.94482422,21.37899971,0,0.333333,1,13.000000,25.000000,0.000000,1.000000,1.000000,1.000000,392486.627179,113.000000,2.000000
315788.10205078,234940.06201172,21.37299919,0,0.333333,1,13.000000,25.000000,0.000000,1.000000,1.000000,1.000000,392486.627179,105.000000,2.000000
315788.19604492,234940.17822266,21.38299942,0,0.333333,1,13.000000,25.000000,0.000000,1.000000,1.000000,1.000000,392486.627179,129.000000,2.000000
315788.28894043,234940.29296875,21.38599968,0,0.333333,1,13.000000,25.000000,0.000000,1.000000,1.000000,1.000000,392486.627179,113.000000,2.000000
315788.39501953,234940.42285156,21.37199974,0,0.333333,1,13.000000,25.000000,0.000000,1.000000,1.000000,1.000000,392486.627179,155.000000,2.000000
315788.48596191,234940.53613281,21.40299988,0,0.333333,1,13.000000,25.000000,0.000000,1.000000,1.000000,1.000000,392486.627179,188.000000,2.000000
315788.57702637,234940.64990234,21.42000008,0,0.333333,1,13.000000,25.000000,0.000000,1.000000,1.000000,1.000000,392486.627179,236.000000,2.000000
315788.69494629,234940.79589844,21.36400032,0,0.333333,1,13.000000,25.000000,0.000000,1.000000,1.000000,1.000000,392486.627179,112.000000,2.000000
315788.78698730,234940.90917969,21.37700081,0,0.333333,1,13.000000,25.000000,0.000000,1.000000,1.000000,1.000000,392486.627179,136.000000,2.000000
315788.88305664,234941.02685547,21.36499977,0,0.333333,1,13.000000,25.000000,0.000000,1.000000,1.000000,1.000000,392486.627179,106.000000,2.000000
315789.27600098,234941.51416016,21.36599922,0,0.333333,1,13.000000,25.000000,0.000000,1.000000,2.000000,2.000000,392486.627179,70.000000,2.000000
315789.38500977,234941.64794922,21.34900093,0,0.333333,1,13.000000,26.000000,0.000000,1.000000,2.000000,2.000000,392486.627179,31.000000,4.000000
315789.43701172,234941.71582031,21.48500061,0,0.333333,1,13.000000,26.000000,0.000000,1.000000,2.000000,2.000000,392486.627301,22.000000,4.000000
315789.57800293,234941.88720703,21.34099960,0,0.333333,1,13.000000,26.000000,0.000000,1.000000,1.000000,1.000000,392486.627301,152.000000,2.000000
315789.66894531,234942.00000000,21.34499931,0,0.333333,1,13.000000,26.000000,0.000000,1.000000,2.000000,1.000000,392486.627301,159.000000,4.000000
315789.77697754,234942.13281250,21.33300018,0,0.333333,1,13.000000,26.000000,0.000000,1.000000,1.000000,1.000000,392486.627301,138.000000,2.000000
315789.88000488,234942.26123047,21.32900047,0,0.333333,1,13.000000,26.000000,0.000000,1.000000,1.000000,1.000000,392486.627301,88.000000,2.000000
315789.97302246,234942.37597656,21.33699989,0,0.333333,1,13.000000,26.000000,0.000000,1.000000,1.000000,1.000000,392486.627301,42.000000,2.000000
315790.07104492,234942.49804688,21.34499931,0,0.333333,1,13.000000,26.000000,0.000000,1.000000,1.000000,1.000000,392486.627301,36.000000,2.000000
315790.17395020,234942.62500000,21.32900047,0,0.333333,1,13.000000,26.000000,0.000000,1.000000,1.000000,1.000000,392486.627301,39.000000,2.000000
315790.27197266,234942.74511719,21.31900024,0,0.333333,1,13.000000,26.000000,0.000000,1.000000,1.000000,1.000000,392486.627301,41.000000,2.000000
315790.36303711,234942.85888672,21.33099937,0,0.333333,1,13.000000,26.000000,0.000000,1.000000,1.000000,1.000000,392486.627301,28.000000,2.000000
315790.46594238,234942.98583984,21.32099915,0,0.333333,1,13.000000,26.000000,0.000000,1.000000,1.000000,1.000000,392486.627301,36.000000,2.000000
315790.56604004,234943.10986328,21.34000015,0,0.333333,1,13.000000,26.000000,0.000000,1.000000,1.000000,1.000000,392486.627301,64.000000,2.000000
315790.65698242,234943.22314453,21.35700035,0,0.333333,1,13.000000,26.000000,0.000000,1.000000,1.000000,1.000000,392486.627301,151.000000,2.000000
315790.74804688,234943.33691406,21.38899994,0,0.333333,1,13.000000,26.000000,0.000000,1.000000,1.000000,1.000000,392486.627301,308.000000,2.000000
315790.83801270,234943.44921875,21.40099907,0,0.333333,1,13.000000,26.000000,0.000000,1.000000,1.000000,1.000000,392486.627301,180.000000,2.000000
315790.94299316,234943.57812500,21.37800026,0,0.333333,1,13.000000,26.000000,0.000000,1.000000,1.000000,1.000000,392486.627301,164.000000,2.000000
315791.04895020,234943.70800781,21.34399986,0,0.333333,1,13.000000,26.000000,0.000000,1.000000,1.000000,1.000000,392486.627301,146.000000,2.000000
315791.14904785,234943.83203125,21.34900093,0,0.333333,1,13.000000,26.000000,0.000000,1.000000,1.000000,1.000000,392486.627301,106.000000,2.000000
315787.01599121,234939.04394531,21.41300011,0,0.333333,1,13.000000,25.000000,0.000000,1.000000,1.000000,1.000000,392486.636578,157.000000,2.000000
315787.12500000,234939.17919922,21.40500069,0,0.333333,1,13.000000,25.000000,0.000000,1.000000,1.000000,1.000000,392486.636578,123.000000,2.000000
315787.22094727,234939.29687500,21.40900040,0,0.333333,1,13.000000,25.000000,0.000000,1.000000,2.000000,2.000000,392486.636578,128.000000,2.000000
315787.42700195,234939.55175781,21.37100029,0,0.333333,1,13.000000,25.000000,0.000000,1.000000,1.000000,1.000000,392486.636578,96.000000,2.000000
315787.52697754,234939.67480469,21.37000084,0,0.333333,1,13.000000,25.000000,0.000000,1.000000,1.000000,1.000000,392486.636578,105.000000,2.000000
315787.61694336,234939.78613281,21.36800003,0,0.333333,1,13.000000,25.000000,0.000000,1.000000,1.000000,1.000000,392486.636578,130.000000,2.000000
315787.71496582,234939.90917969,21.36000061,0,0.333333,1,13.000000,25.000000,0.000000,1.000000,1.000000,1.000000,392486.636578,116.000000,2.000000
315787.81201172,234940.02783203,21.37100029,0,0.333333,1,13.000000,25.000000,0.000000,1.000000,1.000000,1.000000,392486.636578,111.000000,2.000000
315787.92004395,234940.16210938,21.36000061,0,0.333333,1,13.000000,25.000000,0.000000,1.000000,1.000000,1.000000,392486.636578,118.000000,2.000000
315788.01000977,234940.27294922,21.36199951,0,0.333333,1,13.000000,25.000000,0.000000,1.000000,1.000000,1.000000,392486.636578,109.000000,2.000000
315788.11401367,234940.40185547,21.36300087,0,0.333333,1,13.000000,25.000000,0.000000,1.000000,1.000000,1.000000,392486.636578,118.000000,2.000000
315788.20703125,234940.51806641,21.35899925,0,0.333333,1,13.000000,25.000000,0.000000,1.000000,1.000000,1.000000,392486.636578,144.000000,2.000000
315788.28796387,234940.61914063,21.41399956,0,0.333333,1,13.000000,25.000000,0.000000,1.000000,1.000000,1.000000,392486.636578,162.000000,2.000000
315788.39294434,234940.74804688,21.37000084,0,0.333333,1,13.000000,25.000000,0.000000,1.000000,1.000000,1.000000,392486.636578,118.000000,2.000000
315788.49804688,234940.87792969,21.36499977,0,0.333333,1,13.000000,25.000000,0.000000,1.000000,1.000000,1.000000,392486.636578,131.000000,2.000000
315788.60302734,234941.00683594,21.34700012,0,0.333333,1,13.000000,25.000000,0.000000,1.000000,1.000000,1.000000,392486.636578,105.000000,2.000000
315788.70300293,234941.13085938,21.34199905,0,0.333333,1,13.000000,25.000000,0.000000,1.000000,1.000000,1.000000,392486.636578,120.000000,2.000000
315788.79797363,234941.24902344,21.35099983,0,0.333333,1,13.000000,25.000000,0.000000,1.000000,1.000000,1.000000,392486.636578,136.000000,2.000000
315788.87097168,234941.34082031,21.42700005,0,0.333333,1,13.000000,25.000000,0.000000,1.000000,1.000000,1.000000,392486.636578,147.000000,4.000000
315788.98205566,234941.47705078,21.36499977,0,0.333333,1,13.000000,25.000000,0.000000,1.000000,1.000000,1.000000,392486.636578,214.000000,2.000000
315789.08898926,234941.60888672,21.34000015,0,0.333333,1,13.000000,25.000000,0.000000,1.000000,2.000000,2.000000,392486.636578,115.000000,2.000000
315789.19299316,234941.73779297,21.32900047,0,0.333333,1,13.000000,26.000000,0.000000,1.000000,1.000000,1.000000,392486.636578,148.000000,2.000000
315789.29602051,234941.86523438,21.32600021,0,0.333333,1,13.000000,26.000000,0.000000,1.000000,1.000000,1.000000,392486.636578,133.000000,2.000000
315789.39001465,234941.98095703,21.31999969,0,0.333333,1,13.000000,26.000000,0.000000,1.000000,1.000000,1.000000,392486.636578,172.000000,2.000000
315789.49694824,234942.11279297,21.32200050,0,0.333333,1,13.000000,26.000000,0.000000,1.000000,1.000000,1.000000,392486.636578,128.000000,2.000000
315789.58996582,234942.22900391,21.32299995,0,0.333333,1,13.000000,26.000000,0.000000,1.000000,1.000000,1.000000,392486.636578,116.000000,2.000000
315789.68505859,234942.34716797,21.31999969,0,0.333333,1,13.000000,26.000000,0.000000,1.000000,1.000000,1.000000,392486.636578,148.000000,2.000000
315789.77795410,234942.46191406,21.31500053,0,0.333333,1,13.000000,26.000000,0.000000,1.000000,1.000000,1.000000,392486.636578,129.000000,2.000000
315789.88403320,234942.59277344,21.31999969,0,0.333333,1,13.000000,26.000000,0.000000,1.000000,1.000000,1.000000,392486.636578,49.000000,2.000000
315789.98596191,234942.71923828,21.31599998,0,0.333333,1,13.000000,26.000000,0.000000,1.000000,1.000000,1.000000,392486.636578,47.000000,2.000000
315790.08105469,234942.83691406,21.31800079,0,0.333333,1,13.000000,26.000000,0.000000,1.000000,1.000000,1.000000,392486.636578,49.000000,2.000000
315790.17602539,234942.95507813,21.32999992,0,0.333333,1,13.000000,26.000000,0.000000,1.000000,1.000000,1.000000,392486.636578,105.000000,2.000000
315790.27294922,234943.07519531,21.34099960,0,0.333333,1,13.000000,26.000000,0.000000,1.000000,1.000000,1.000000,392486.636578,122.000000,2.000000
315790.35595703,234943.17919922,21.37100029,0,0.333333,1,13.000000,26.000000,0.000000,1.000000,1.000000,1.000000,392486.636578,242.000000,2.000000
315790.45104980,234943.29687500,21.37400055,0,0.333333,1,13.000000,26.000000,0.000000,1.000000,1.000000,1.000000,392486.636700,183.000000,2.000000
315790.55700684,234943.42675781,21.35499954,0,0.333333,1,13.000000,26.000000,0.000000,1.000000,1.000000,1.000000,392486.636700,122.000000,2.000000
315790.67102051,234943.56884766,21.32999992,0,0.333333,1,13.000000,26.000000,0.000000,1.000000,1.000000,1.000000,392486.636700,146.000000,2.000000
315790.76403809,234943.68310547,21.33399963,0,0.333333,1,13.000000,26.000000,0.000000,1.000000,1.000000,1.000000,392486.636700,156.000000,2.000000
315790.86901855,234943.81396484,21.32500076,0,0.333333,1,13.000000,26.000000,0.000000,1.000000,1.000000,1.000000,392486.636700,155.000000,2.000000
315790.96203613,234943.92822266,21.32799911,0,0.333333,1,13.000000,26.000000,0.000000,1.000000,1.000000,1.000000,392486.636700,129.000000,2.000000
315791.06005859,234944.04980469,21.33399963,0,0.333333,1,13.000000,26.000000,0.000000,1.000000,1.000000,1.000000,392486.636700,150.000000,2.000000
315790.52197266,234943.60107422,21.33799934,0,0.333333,1,13.000000,26.000000,0.000000,1.000000,1.000000,1.000000,392486.645977,123.000000,2.000000
315790.61999512,234943.72216797,21.34199905,0,0.333333,1,13.000000,26.000000,0.000000,1.000000,1.000000,1.000000,392486.645977,129.000000,2.000000
315786.95397949,234939.18701172,21.51199913,0,0.333333,1,13.000000,25.000000,0.000000,1.000000,1.000000,1.000000,392486.645977,204.000000,4.000000
315787.06604004,234939.32421875,21.45899963,0,0.333333,1,13.000000,25.000000,0.000000,1.000000,1.000000,1.000000,392486.645977,207.000000,4.000000
315787.27502441,234939.58105469,21.39800072,0,0.333333,1,13.000000,25.000000,0.000000,1.000000,2.000000,2.000000,392486.645977,70.000000,2.000000
315787.38195801,234939.71289063,21.36599922,0,0.333333,1,13.000000,25.000000,0.000000,1.000000,2.000000,2.000000,392486.645977,38.000000,2.000000
315787.47802734,234939.83300781,21.38899994,0,0.333333,1,13.000000,25.000000,0.000000,1.000000,1.000000,1.000000,392486.645977,102.000000,2.000000
315787.56994629,234939.94580078,21.38800049,0,0.333333,1,13.000000,25.000000,0.000000,1.000000,1.000000,1.000000,392486.645977,129.000000,2.000000
315787.67797852,234940.08007813,21.38299942,0,0.333333,1,13.000000,25.000000,0.000000,1.000000,1.000000,1.000000,392486.645977,102.000000,2.000000
315787.76904297,234940.19384766,21.37700081,0,0.333333,1,13.000000,25.000000,0.000000,1.000000,1.000000,1.000000,392486.645977,123.000000,2.000000
315787.86596680,234940.31298828,21.37500000,0,0.333333,1,13.000000,25.000000,0.000000,1.000000,1.000000,1.000000,392486.645977,128.000000,2.000000
315787.95495605,234940.42285156,21.38599968,0,0.333333,1,13.000000,25.000000,0.000000,1.000000,1.000000,1.000000,392486.645977,115.000000,2.000000
315788.05700684,234940.54980469,21.39500046,0,0.333333,1,13.000000,25.000000,0.000000,1.000000,1.000000,1.000000,392486.645977,121.000000,2.000000
315788.16101074,234940.67822266,21.37700081,0,0.333333,1,13.000000,25.000000,0.000000,1.000000,1.000000,1.000000,392486.645977,132.000000,2.000000
315788.25805664,234940.79882813,21.37599945,0,0.333333,1,13.000000,25.000000,0.000000,1.000000,1.000000,1.000000,392486.645977,117.000000,2.000000
315788.35705566,234940.92089844,21.37800026,0,0.333333,1,13.000000,25.000000,0.000000,1.000000,1.000000,1.000000,392486.645977,130.000000,2.000000
315788.45495605,234941.04296875,21.37700081,0,0.333333,1,13.000000,25.000000,0.000000,1.000000,1.000000,1.000000,392486.645977,166.000000,2.000000
315788.55004883,234941.15917969,21.36300087,0,0.333333,1,13.000000,25.000000,0.000000,1.000000,1.000000,1.000000,392486.645977,113.000000,2.000000
315788.64697266,234941.27978516,21.36499977,0,0.333333,1,13.000000,25.000000,0.000000,1.000000,1.000000,1.000000,392486.645977,136.000000,2.000000
315788.74804688,234941.40380859,21.36400032,0,0.333333,1,13.000000,25.000000,0.000000,1.000000,1.000000,1.000000,392486.645977,121.000000,2.000000
315788.85498047,234941.53710938,21.35499954,0,0.333333,1,13.000000,25.000000,0.000000,1.000000,1.000000,1.000000,392486.645977,121.000000,2.000000
315788.93505859,234941.63720703,21.38800049,0,0.333333,1,13.000000,25.000000,0.000000,1.000000,1.000000,1.000000,392486.645977,241.000000,2.000000
315789.05004883,234941.77880859,21.35600090,0,0.333333,1,13.000000,25.000000,0.000000,1.000000,1.000000,1.000000,392486.645977,109.000000,2.000000
315789.14404297,234941.89599609,21.35499954,0,0.333333,1,13.000000,26.000000,0.000000,1.000000,1.000000,1.000000,392486.645977,124.000000,2.000000
315789.24096680,234942.01513672,21.35300064,0,0.333333,1,13.000000,26.000000,0.000000,1.000000,1.000000,1.000000,392486.645977,113.000000,2.000000
315789.33398438,234942.12988281,21.34799957,0,0.333333,1,13.000000,26.000000,0.000000,1.000000,1.000000,1.000000,392486.645977,129.000000,2.000000
315789.43994141,234942.26220703,21.34300041,0,0.333333,1,13.000000,26.000000,0.000000,1.000000,1.000000,1.000000,392486.645977,143.000000,2.000000
315789.54394531,234942.39013672,21.33600044,0,0.333333,1,13.000000,26.000000,0.000000,1.000000,1.000000,1.000000,392486.645977,128.000000,2.000000
315789.64294434,234942.51318359,21.32799911,0,0.333333,1,13.000000,26.000000,0.000000,1.000000,1.000000,1.000000,392486.645977,123.000000,2.000000
315789.73999023,234942.63281250,21.33600044,0,0.333333,1,13.000000,26.000000,0.000000,1.000000,2.000000,1.000000,392486.645977,140.000000,4.000000
315789.83496094,234942.75000000,21.34399986,0,0.333333,1,13.000000,26.000000,0.000000,1.000000,1.000000,1.000000,392486.645977,136.000000,2.000000
315789.93005371,234942.86914063,21.33900070,0,0.333333,1,13.000000,26.000000,0.000000,1.000000,1.000000,1.000000,392486.645977,128.000000,2.000000
315790.02905273,234942.99023438,21.33399963,0,0.333333,1,13.000000,26.000000,0.000000,1.000000,1.000000,1.000000,392486.645977,138.000000,2.000000
315790.12500000,234943.10986328,21.34399986,0,0.333333,1,13.000000,26.000000,0.000000,1.000000,1.000000,1.000000,392486.645977,120.000000,2.000000
315790.22497559,234943.23291016,21.36300087,0,0.333333,1,13.000000,26.000000,0.000000,1.000000,1.000000,1.000000,392486.645977,113.000000,2.000000
315790.31005859,234943.33984375,21.38999939,0,0.333333,1,13.000000,26.000000,0.000000,1.000000,1.000000,1.000000,392486.645977,118.000000,2.000000
315790.42395020,234943.47998047,21.35600090,0,0.333333,1,13.000000,26.000000,0.000000,1.000000,1.000000,1.000000,392486.645977,105.000000,2.000000
315790.71203613,234943.83691406,21.34700012,0,0.333333,1,13.000000,26.000000,0.000000,1.000000,1.000000,1.000000,392486.645977,129.000000,2.000000
315790.81201172,234943.95996094,21.35799980,0,0.333333,1,13.000000,26.000000,0.000000,1.000000,1.000000,1.000000,392486.645977,126.000000,2.000000
315790.91503906,234944.08789063,21.34900093,0,0.333333,1,13.000000,26.000000,0.000000,1.000000,1.000000,1.000000,392486.645977,141.000000,2.000000
315791.01098633,234944.20800781,21.35600090,0,0.333333,1,13.000000,26.000000,0.000000,1.000000,1.000000,1.000000,392486.645977,164.000000,2.000000
315786.99694824,234939.47216797,21.41399956,0,0.333333,1,13.000000,25.000000,0.000000,1.000000,1.000000,1.000000,392486.655255,135.000000,2.000000
315787.08801270,234939.58496094,21.42099953,0,0.333333,1,13.000000,25.000000,0.000000,1.000000,2.000000,2.000000,392486.655255,87.000000,2.000000
315787.19995117,234939.72314453,21.39800072,0,0.333333,1,13.000000,25.000000,0.000000,1.000000,1.000000,1.000000,392486.655255,123.000000,2.000000
315787.29199219,234939.83691406,21.39500046,0,0.333333,1,13.000000,25.000000,0.000000,1.000000,2.000000,2.000000,392486.655255,42.000000,2.000000
315787.38793945,234939.95605469,21.39399910,0,0.333333,1,13.000000,25.000000,0.000000,1.000000,1.000000,1.000000,392486.655255,94.000000,2.000000
315787.48596191,234940.07617188,21.37400055,0,0.333333,1,13.000000,25.000000,0.000000,1.000000,1.000000,1.000000,392486.655255,105.000000,2.000000
315787.58398438,234940.19921875,21.39399910,0,0.333333,1,13.000000,25.000000,0.000000,1.000000,1.000000,1.000000,392486.655255,135.000000,2.000000
315787.68798828,234940.32617188,21.38400078,0,0.333333,1,13.000000,25.000000,0.000000,1.000000,1.000000,1.000000,392486.655255,153.000000,2.000000
315787.78295898,234940.44384766,21.38400078,0,0.333333,1,13.000000,25.000000,0.000000,1.000000,1.000000,1.000000,392486.655255,135.000000,2.000000
315787.88195801,234940.56689453,21.38400078,0,0.333333,1,13.000000,25.000000,0.000000,1.000000,1.000000,1.000000,392486.655255,121.000000,2.000000
315787.98095703,234940.68896484,21.37700081,0,0.333333,1,13.000000,25.000000,0.000000,1.000000,1.000000,1.000000,392486.655255,108.000000,2.000000
315788.07702637,234940.80810547,21.36899948,0,0.333333,1,13.000000,25.000000,0.000000,1.000000,1.000000,1.000000,392486.655377,122.000000,2.000000
315788.17199707,234940.92675781,21.36899948,0,0.333333,1,13.000000,25.000000,0.000000,1.000000,1.000000,1.000000,392486.655377,103.000000,2.000000
315788.27294922,234941.05078125,21.36199951,0,0.333333,1,13.000000,25.000000,0.000000,1.000000,1.000000,1.000000,392486.655377,130.000000,2.000000
315788.37805176,234941.18115234,21.36300087,0,0.333333,1,13.000000,25.000000,0.000000,1.000000,1.000000,1.000000,392486.655377,110.000000,2.000000
315788.47302246,234941.29882813,21.35600090,0,0.333333,1,13.000000,25.000000,0.000000,1.000000,1.000000,1.000000,392486.655377,143.000000,2.000000
315788.57299805,234941.42285156,21.36499977,0,0.333333,1,13.000000,25.000000,0.000000,1.000000,1.000000,1.000000,392486.655377,130.000000,2.000000
315788.66503906,234941.53710938,21.36700058,0,0.333333,1,13.000000,25.000000,0.000000,1.000000,1.000000,1.000000,392486.655377,172.000000,2.000000
315788.76293945,234941.65917969,21.36199951,0,0.333333,1,13.000000,25.000000,0.000000,1.000000,2.000000,1.000000,392486.655377,151.000000,4.000000
315788.84399414,234941.75878906,21.40200043,0,0.333333,1,13.000000,25.000000,0.000000,1.000000,1.000000,1.000000,392486.655377,317.000000,2.000000
315788.95104980,234941.89111328,21.38999939,0,0.333333,1,13.000000,25.000000,0.000000,1.000000,1.000000,1.000000,392486.655377,151.000000,2.000000
315789.06604004,234942.03320313,21.34000015,0,0.333333,1,13.000000,26.000000,0.000000,1.000000,1.000000,1.000000,392486.655377,144.000000,2.000000
315789.16296387,234942.15380859,21.34099960,0,0.333333,1,13.000000,26.000000,0.000000,1.000000,1.000000,1.000000,392486.655377,180.000000,2.000000
315789.26403809,234942.27880859,21.33799934,0,0.333333,1,13.000000,26.000000,0.000000,1.000000,1.000000,1.000000,392486.655377,129.000000,2.000000
315789.35900879,234942.39501953,21.34499931,0,0.333333,1,13.000000,26.000000,0.000000,1.000000,1.000000,1.000000,392486.655377,126.000000,2.000000
315789.45397949,234942.51318359,21.33900070,0,0.333333,1,13.000000,26.000000,0.000000,1.000000,2.000000,1.000000,392486.655377,130.000000,4.000000
315789.55004883,234942.63183594,21.34199905,0,0.333333,1,13.000000,26.000000,0.000000,1.000000,1.000000,1.000000,392486.655377,121.000000,2.000000
315789.65100098,234942.75781250,21.34099960,0,0.333333,1,13.000000,26.000000,0.000000,1.000000,1.000000,1.000000,392486.655377,135.000000,2.000000
315789.75402832,234942.88476563,21.34399986,0,0.333333,1,13.000000,26.000000,0.000000,1.000000,1.000000,1.000000,392486.655377,133.000000,2.000000
315789.84899902,234943.00292969,21.33600044,0,0.333333,1,13.000000,26.000000,0.000000,1.000000,1.000000,1.000000,392486.655377,111.000000,2.000000
315789.95397949,234943.13183594,21.33499908,0,0.333333,1,13.000000,26.000000,0.000000,1.000000,1.000000,1.000000,392486.655377,133.000000,2.000000
315790.05004883,234943.25195313,21.32900047,0,0.333333,1,13.000000,26.000000,0.000000,1.000000,1.000000,1.000000,392486.655377,123.000000,2.000000
