//X,Y,Z,Rf,Gf,Bf,Point Source ID,Scan Angle Rank,Flightline Edge,Scan Direction,Number of Returns,Return Number,Time,Intensity,Classification
315790.89294434,234932.06103516,21.87700081,0,0.333333,1,11.000000,-9.000000,0.000000,1.000000,1.000000,1.000000,391898.803570,139.000000,2.000000
315790.97998047,234932.14892578,21.86499977,0,0.333333,1,11.000000,-9.000000,0.000000,1.000000,1.000000,1.000000,391898.803570,162.000000,2.000000
315791.07299805,234932.24316406,21.86400032,0,0.333333,1,11.000000,-9.000000,0.000000,1.000000,1.000000,1.000000,391898.803570,163.000000,2.000000
315791.17102051,234932.34179688,21.85700035,0,0.333333,1,11.000000,-9.000000,0.000000,1.000000,1.000000,1.000000,391898.803570,151.000000,2.000000
315791.25695801,234932.43017578,21.86400032,0,0.333333,1,11.000000,-9.000000,0.000000,1.000000,1.000000,1.000000,391898.803570,195.000000,2.000000
315791.35095215,234932.52490234,21.85799980,0,0.333333,1,11.000000,-9.000000,0.000000,1.000000,1.000000,1.000000,391898.803570,186.000000,2.000000
315791.43994141,234932.61621094,21.89800072,0,0.333333,1,11.000000,-9.000000,0.000000,1.000000,1.000000,1.000000,391898.803570,147.000000,2.000000
315790.51293945,234931.88720703,21.88500023,0,0.333333,1,11.000000,-9.000000,0.000000,1.000000,1.000000,1.000000,391898.812970,210.000000,2.000000
315790.59899902,234931.97412109,21.88100052,0,0.333333,1,11.000000,-9.000000,0.000000,1.000000,1.000000,1.000000,391898.812970,245.000000,2.000000
315790.69494629,234932.07080078,21.87500000,0,0.333333,1,11.000000,-9.000000,0.000000,1.000000,1.000000,1.000000,391898.812970,192.000000,2.000000
315790.78100586,234932.15820313,21.86100006,0,0.333333,1,11.000000,-9.000000,0.000000,1.000000,1.000000,1.000000,391898.812970,177.000000,2.000000
315790.86804199,234932.24707031,21.85899925,0,0.333333,1,11.000000,-9.000000,0.000000,1.000000,1.000000,1.000000,391898.812970,168.000000,2.000000
315790.95397949,234932.33398438,21.86100006,0,0.333333,1,11.000000,-9.000000,0.000000,1.000000,1.000000,1.000000,391898.812970,143.000000,2.000000
315791.05102539,234932.43310547,21.86300087,0,0.333333,1,11.000000,-9.000000,0.000000,1.000000,1.000000,1.000000,391898.812970,138.000000,2.000000
315791.14599609,234932.52783203,21.86100006,0,0.333333,1,11.000000,-9.000000,0.000000,1.000000,1.000000,1.000000,391898.812970,214.000000,2.000000
315791.23205566,234932.61621094,21.85300064,0,0.333333,1,11.000000,-9.000000,0.000000,1.000000,1.000000,1.000000,391898.812970,163.000000,2.000000
315791.32604980,234932.71093750,21.86499977,0,0.333333,1,11.000000,-9.000000,0.000000,1.000000,1.000000,1.000000,391898.812970,211.000000,2.000000
315789.71704102,234931.61279297,22.01499939,0,0.333333,1,11.000000,-9.000000,0.000000,1.000000,1.000000,1.000000,391898.831646,272.000000,2.000000
315789.80004883,234931.69482422,21.88299942,0,0.333333,1,11.000000,-9.000000,0.000000,1.000000,1.000000,1.000000,391898.831646,210.000000,2.000000
315789.88696289,234931.78320313,21.87800026,0,0.333333,1,11.000000,-9.000000,0.000000,1.000000,1.000000,1.000000,391898.831646,171.000000,2.000000
315789.98095703,234931.87890625,21.87199974,0,0.333333,1,11.000000,-9.000000,0.000000,1.000000,1.000000,1.000000,391898.831646,155.000000,2.000000
315790.06604004,234931.96386719,21.86199951,0,0.333333,1,11.000000,-9.000000,0.000000,1.000000,1.000000,1.000000,391898.831768,163.000000,2.000000
315790.15502930,234932.05419922,21.85700035,0,0.333333,1,11.000000,-9.000000,0.000000,1.000000,1.000000,1.000000,391898.831768,150.000000,2.000000
315790.24194336,234932.14306641,21.85700035,0,0.333333,1,11.000000,-9.000000,0.000000,1.000000,1.000000,1.000000,391898.831768,139.000000,2.000000
315790.33703613,234932.24023438,21.85499954,0,0.333333,1,11.000000,-9.000000,0.000000,1.000000,1.000000,1.000000,391898.831768,151.000000,2.000000
315790.43005371,234932.33398438,21.85799980,0,0.333333,1,11.000000,-9.000000,0.000000,1.000000,1.000000,1.000000,391898.831768,175.000000,2.000000
315790.51904297,234932.42382813,21.85700035,0,0.333333,1,11.000000,-9.000000,0.000000,1.000000,2.000000,1.000000,391898.831768,144.000000,4.000000
315790.61303711,234932.51904297,21.85199928,0,0.333333,1,11.000000,-9.000000,0.000000,1.000000,1.000000,1.000000,391898.831768,164.000000,2.000000
315790.70202637,234932.60888672,21.85799980,0,0.333333,1,11.000000,-9.000000,0.000000,1.000000,1.000000,1.000000,391898.831768,187.000000,2.000000
315790.78698730,234932.69580078,21.85000038,0,0.333333,1,11.000000,-9.000000,0.000000,1.000000,1.000000,1.000000,391898.831768,159.000000,2.000000
315790.87695313,234932.78710938,21.85600090,0,0.333333,1,11.000000,-9.000000,0.000000,1.000000,1.000000,1.000000,391898.831768,144.000000,2.000000
315790.97094727,234932.88183594,21.85700035,0,0.333333,1,11.000000,-9.000000,0.000000,1.000000,1.000000,1.000000,391898.831768,210.000000,2.000000
315791.06701660,234932.97900391,21.86499977,0,0.333333,1,11.000000,-9.000000,0.000000,1.000000,1.000000,1.000000,391898.831768,144.000000,2.000000
315791.15295410,234933.06689453,21.86499977,0,0.333333,1,11.000000,-9.000000,0.000000,1.000000,1.000000,1.000000,391898.831768,157.000000,2.000000
315791.24902344,234933.16406250,21.86499977,0,0.333333,1,11.000000,-9.000000,0.000000,1.000000,1.000000,1.000000,391898.831768,141.000000,2.000000
315790.03100586,234931.68115234,22.02400017,0,0.333333,1,11.000000,-9.000000,0.000000,1.000000,1.000000,1.000000,391898.822369,279.000000,4.000000
315790.10595703,234931.75488281,21.88400078,0,0.333333,1,11.000000,-9.000000,0.000000,1.000000,1.000000,1.000000,391898.822369,141.000000,2.000000
315790.19201660,234931.84179688,21.88100052,0,0.333333,1,11.000000,-9.000000,0.000000,1.000000,1.000000,1.000000,391898.822369,135.000000,2.000000
315790.27905273,234931.93115234,21.86800003,0,0.333333,1,11.000000,-9.000000,0.000000,1.000000,1.000000,1.000000,391898.822369,148.000000,2.000000
315790.37194824,234932.02392578,21.86700058,0,0.333333,1,11.000000,-9.000000,0.000000,1.000000,1.000000,1.000000,391898.822369,148.000000,2.000000
315790.46899414,234932.12304688,21.86400032,0,0.333333,1,11.000000,-9.000000,0.000000,1.000000,1.000000,1.000000,391898.822369,163.000000,2.000000
315790.55395508,234932.20898438,21.85499954,0,0.333333,1,11.000000,-9.000000,0.000000,1.000000,1.000000,1.000000,391898.822369,141.000000,2.000000
315790.65002441,234932.30712891,21.85000038,0,0.333333,1,11.000000,-9.000000,0.000000,1.000000,1.000000,1.000000,391898.822369,144.000000,2.000000
315790.73498535,234932.39306641,21.86100006,0,0.333333,1,11.000000,-9.000000,0.000000,1.000000,1.000000,1.000000,391898.822369,178.000000,2.000000
315790.82495117,234932.48486328,21.85899925,0,0.333333,1,11.000000,-9.000000,0.000000,1.000000,1.000000,1.000000,391898.822369,153.000000,2.000000
315790.91003418,234932.57080078,21.84799957,0,0.333333,1,11.000000,-9.000000,0.000000,1.000000,1.000000,1.000000,391898.822369,144.000000,2.000000
315791.00805664,234932.66992188,21.85799980,0,0.333333,1,11.000000,-9.000000,0.000000,1.000000,1.000000,1.000000,391898.822369,154.000000,2.000000
315791.10095215,234932.76416016,21.86400032,0,0.333333,1,11.000000,-9.000000,0.000000,1.000000,1.000000,1.000000,391898.822369,183.000000,2.000000
315791.18994141,234932.85400391,21.85799980,0,0.333333,1,11.000000,-9.000000,0.000000,1.000000,1.000000,1.000000,391898.822369,143.000000,2.000000
315791.28198242,234932.94824219,21.85400009,0,0.333333,1,11.000000,-9.000000,0.000000,1.000000,1.000000,1.000000,391898.822369,129.000000,2.000000
315789.34899902,234931.56884766,21.89100075,0,0.333333,1,11.000000,-9.000000,0.000000,1.000000,1.000000,1.000000,391898.841046,120.000000,2.000000
315789.43603516,234931.65820313,21.87700081,0,0.333333,1,11.000000,-9.000000,0.000000,1.000000,2.000000,1.000000,391898.841046,159.000000,4.000000
315789.52001953,234931.74316406,21.87500000,0,0.333333,1,11.000000,-9.000000,0.000000,1.000000,1.000000,1.000000,391898.841046,198.000000,2.000000
315789.61694336,234931.84082031,21.86700058,0,0.333333,1,11.000000,-9.000000,0.000000,1.000000,1.000000,1.000000,391898.841046,192.000000,2.000000
315789.71105957,234931.93603516,21.86300087,0,0.333333,1,11.000000,-9.000000,0.000000,1.000000,1.000000,1.000000,391898.841046,192.000000,2.000000
315789.79895020,234932.02490234,21.85300064,0,0.333333,1,11.000000,-9.000000,0.000000,1.000000,1.000000,1.000000,391898.841046,155.000000,2.000000
315789.89099121,234932.11816406,21.85700035,0,0.333333,1,11.000000,-9.000000,0.000000,1.000000,1.000000,1.000000,391898.841046,208.000000,2.000000
315789.97998047,234932.20800781,21.85700035,0,0.333333,1,11.000000,-9.000000,0.000000,1.000000,1.000000,1.000000,391898.841046,167.000000,2.000000
315790.06701660,234932.29589844,21.84900093,0,0.333333,1,11.000000,-9.000000,0.000000,1.000000,1.000000,1.000000,391898.841046,118.000000,2.000000
315790.15698242,234932.38818359,21.85000038,0,0.333333,1,11.000000,-9.000000,0.000000,1.000000,1.000000,1.000000,391898.841046,93.000000,2.000000
315790.24804688,234932.47998047,21.84399986,0,0.333333,1,11.000000,-9.000000,0.000000,1.000000,1.000000,1.000000,391898.841046,97.000000,2.000000
315790.34301758,234932.57617188,21.84000015,0,0.333333,1,11.000000,-9.000000,0.000000,1.000000,1.000000,1.000000,391898.841046,97.000000,2.000000
315790.43200684,234932.66601563,21.84600067,0,0.333333,1,11.000000,-9.000000,0.000000,1.000000,1.000000,1.000000,391898.841046,77.000000,2.000000
315790.52905273,234932.76513672,21.84600067,0,0.333333,1,11.000000,-9.000000,0.000000,1.000000,1.000000,1.000000,391898.841046,78.000000,2.000000
315790.61206055,234932.84912109,21.84499931,0,0.333333,1,11.000000,-9.000000,0.000000,1.000000,1.000000,1.000000,391898.841046,95.000000,2.000000
315790.70202637,234932.93994141,21.85300064,0,0.333333,1,11.000000,-9.000000,0.000000,1.000000,1.000000,1.000000,391898.841046,133.000000,2.000000
315790.79101563,234933.02978516,21.85499954,0,0.333333,1,11.000000,-9.000000,0.000000,1.000000,1.000000,1.000000,391898.841168,144.000000,2.000000
315790.88696289,234933.12792969,21.85499954,0,0.333333,1,11.000000,-9.000000,0.000000,1.000000,1.000000,1.000000,391898.841168,93.000000,2.000000
315790.97595215,234933.21777344,21.85000038,0,0.333333,1,11.000000,-9.000000,0.000000,1.000000,1.000000,1.000000,391898.841168,111.000000,2.000000
315791.06701660,234933.31005859,21.85799980,0,0.333333,1,11.000000,-9.000000,0.000000,1.000000,1.000000,1.000000,391898.841168,122.000000,2.000000
315791.16101074,234933.40576172,21.85400009,0,0.333333,1,11.000000,-9.000000,0.000000,1.000000,1.000000,1.000000,391898.841168,157.000000,2.000000
315789.12597656,234931.63476563,21.93700027,0,0.333333,1,11.000000,-9.000000,0.000000,1.000000,1.000000,1.000000,391898.850445,105.000000,2.000000
315789.21105957,234931.72021484,21.87400055,0,0.333333,1,11.000000,-9.000000,0.000000,1.000000,1.000000,1.000000,391898.850445,95.000000,2.000000
315789.30102539,234931.81103516,21.85600090,0,0.333333,1,11.000000,-9.000000,0.000000,1.000000,1.000000,1.000000,391898.850445,105.000000,2.000000
315789.38598633,234931.89794922,21.86000061,0,0.333333,1,11.000000,-9.000000,0.000000,1.000000,1.000000,1.000000,391898.850445,148.000000,2.000000
315789.47497559,234931.98779297,21.85600090,0,0.333333,1,11.000000,-9.000000,0.000000,1.000000,1.000000,1.000000,391898.850445,148.000000,2.000000
315789.56604004,234932.08007813,21.84399986,0,0.333333,1,11.000000,-9.000000,0.000000,1.000000,1.000000,1.000000,391898.850445,130.000000,2.000000
315789.66699219,234932.18212891,21.85400009,0,0.333333,1,11.000000,-9.000000,0.000000,1.000000,1.000000,1.000000,391898.850445,101.000000,2.000000
315789.75000000,234932.26708984,21.85400009,0,0.333333,1,11.000000,-9.000000,0.000000,1.000000,1.000000,1.000000,391898.850445,100.000000,2.000000
315789.84704590,234932.36523438,21.85700035,0,0.333333,1,11.000000,-9.000000,0.000000,1.000000,1.000000,1.000000,391898.850445,79.000000,2.000000
315789.93200684,234932.45019531,21.84700012,0,0.333333,1,11.000000,-9.000000,0.000000,1.000000,1.000000,1.000000,391898.850445,110.000000,2.000000
315790.02404785,234932.54296875,21.84600067,0,0.333333,1,11.000000,-9.000000,0.000000,1.000000,1.000000,1.000000,391898.850445,75.000000,2.000000
315790.10595703,234932.62695313,21.83699989,0,0.333333,1,11.000000,-9.000000,0.000000,1.000000,1.000000,1.000000,391898.850445,39.000000,2.000000
315790.20300293,234932.72509766,21.83499908,0,0.333333,1,11.000000,-9.000000,0.000000,1.000000,1.000000,1.000000,391898.850445,36.000000,2.000000
315790.29602051,234932.81982422,21.84199905,0,0.333333,1,11.000000,-9.000000,0.000000,1.000000,1.000000,1.000000,391898.850445,93.000000,2.000000
315790.39001465,234932.91406250,21.85799980,0,0.333333,1,11.000000,-9.000000,0.000000,1.000000,1.000000,1.000000,391898.850445,78.000000,2.000000
315790.47900391,234933.00488281,21.84600067,0,0.333333,1,11.000000,-9.000000,0.000000,1.000000,1.000000,1.000000,391898.850445,92.000000,2.000000
315790.56896973,234933.09619141,21.84199905,0,0.333333,1,11.000000,-9.000000,0.000000,1.000000,1.000000,1.000000,391898.850445,89.000000,2.000000
315790.65405273,234933.18212891,21.84600067,0,0.333333,1,11.000000,-9.000000,0.000000,1.000000,1.000000,1.000000,391898.850445,92.000000,2.000000
315790.74499512,234933.27392578,21.84399986,0,0.333333,1,11.000000,-9.000000,0.000000,1.000000,1.000000,1.000000,391898.850445,87.000000,2.000000
315790.83703613,234933.36816406,21.85000038,0,0.333333,1,11.000000,-9.000000,0.000000,1.000000,1.000000,1.000000,391898.850445,103.000000,2.000000
315790.93298340,234933.46484375,21.84099960,0,0.333333,1,11.000000,-9.000000,0.000000,1.000000,1.000000,1.000000,391898.850445,76.000000,2.000000
315791.01794434,234933.55078125,21.84600067,0,0.333333,1,11.000000,-9.000000,0.000000,1.000000,1.000000,1.000000,391898.850445,95.000000,2.000000
315791.11901855,234933.65283203,21.86499977,0,0.333333,1,11.000000,-9.000000,0.000000,1.000000,1.000000,1.000000,391898.850445,207.000000,2.000000
315789.72094727,234932.73388672,21.84099960,0,0.333333,1,11.000000,-9.000000,0.000000,1.000000,1.000000,1.000000,391898.869244,49.000000,2.000000
315789.81396484,234932.82910156,21.84399986,0,0.333333,1,11.000000,-9.000000,0.000000,1.000000,1.000000,1.000000,391898.869244,86.000000,2.000000
315789.90698242,234932.92187500,21.85600090,0,0.333333,1,11.000000,-9.000000,0.000000,1.000000,1.000000,1.000000,391898.869244,101.000000,2.000000
315789.99194336,234933.00878906,21.87100029,0,0.333333,1,11.000000,-9.000000,0.000000,1.000000,1.000000,1.000000,391898.869244,144.000000,2.000000
315790.08496094,234933.10400391,21.90500069,0,0.333333,1,11.000000,-9.000000,0.000000,1.000000,1.000000,1.000000,391898.869244,121.000000,2.000000
315790.17297363,234933.19189453,21.85899925,0,0.333333,1,11.000000,-9.000000,0.000000,1.000000,1.000000,1.000000,391898.869244,136.000000,2.000000
315790.27099609,234933.29199219,21.84900093,0,0.333333,1,11.000000,-9.000000,0.000000,1.000000,1.000000,1.000000,391898.869244,86.000000,2.000000
315790.35705566,234933.37890625,21.87299919,0,0.333333,1,11.000000,-9.000000,0.000000,1.000000,1.000000,1.000000,391898.869244,23.000000,2.000000
315790.53698730,234933.56005859,21.84700012,0,0.333333,1,11.000000,-9.000000,0.000000,1.000000,1.000000,1.000000,391898.869244,101.000000,2.000000
315790.62805176,234933.65283203,21.84300041,0,0.333333,1,11.000000,-9.000000,0.000000,1.000000,1.000000,1.000000,391898.869244,20.000000,2.000000
315790.71105957,234933.73681641,21.84600067,0,0.333333,1,11.000000,-9.000000,0.000000,1.000000,1.000000,1.000000,391898.869244,81.000000,2.000000
315790.80895996,234933.83593750,21.84399986,0,0.333333,1,11.000000,-9.000000,0.000000,1.000000,1.000000,1.000000,391898.869244,83.000000,2.000000
315790.90100098,234933.92919922,21.84199905,0,0.333333,1,11.000000,-9.000000,0.000000,1.000000,1.000000,1.000000,391898.869244,84.000000,2.000000
315790.99304199,234934.02197266,21.86000061,0,0.333333,1,11.000000,-9.000000,0.000000,1.000000,1.000000,1.000000,391898.869244,217.000000,2.000000
315789.08300781,234931.89990234,21.87100029,0,0.333333,1,11.000000,-9.000000,0.000000,1.000000,1.000000,1.000000,391898.859845,76.000000,2.000000
315789.17297363,234931.99023438,21.85499954,0,0.333333,1,11.000000,-9.000000,0.000000,1.000000,1.000000,1.000000,391898.859845,106.000000,2.000000
315789.26403809,234932.08300781,21.86700058,0,0.333333,1,11.000000,-9.000000,0.000000,1.000000,1.000000,1.000000,391898.859845,125.000000,2.000000
315789.34802246,234932.16796875,21.84600067,0,0.333333,1,11.000000,-9.000000,0.000000,1.000000,1.000000,1.000000,391898.859845,112.000000,2.000000
315789.43798828,234932.25878906,21.84799957,0,0.333333,1,11.000000,-9.000000,0.000000,1.000000,1.000000,1.000000,391898.859845,82.000000,2.000000
315789.53100586,234932.35302734,21.84600067,0,0.333333,1,11.000000,-9.000000,0.000000,1.000000,1.000000,1.000000,391898.859845,123.000000,2.000000
315789.62695313,234932.45019531,21.84399986,0,0.333333,1,11.000000,-9.000000,0.000000,1.000000,1.000000,1.000000,391898.859845,89.000000,2.000000
315789.71203613,234932.53613281,21.83799934,0,0.333333,1,11.000000,-9.000000,0.000000,1.000000,1.000000,1.000000,391898.859845,22.000000,2.000000
315789.98596191,234932.81298828,21.84399986,0,0.333333,1,11.000000,-9.000000,0.000000,1.000000,1.000000,1.000000,391898.859845,85.000000,2.000000
315790.07104492,234932.89990234,21.85099983,0,0.333333,1,11.000000,-9.000000,0.000000,1.000000,1.000000,1.000000,391898.859845,78.000000,2.000000
315790.17004395,234933.00097656,21.86199951,0,0.333333,1,11.000000,-9.000000,0.000000,1.000000,1.000000,1.000000,391898.859845,88.000000,2.000000
315790.26293945,234933.09423828,21.86400032,0,0.333333,1,11.000000,-9.000000,0.000000,1.000000,1.000000,1.000000,391898.859845,104.000000,2.000000
315790.34997559,234933.18212891,21.84499931,0,0.333333,1,11.000000,-9.000000,0.000000,1.000000,1.000000,1.000000,391898.859845,86.000000,2.000000
315790.43994141,234933.27294922,21.81999969,0,0.333333,1,11.000000,-9.000000,0.000000,1.000000,1.000000,1.000000,391898.859845,23.000000,2.000000
315790.53405762,234933.36816406,21.85000038,0,0.333333,1,11.000000,-9.000000,0.000000,1.000000,1.000000,1.000000,391898.859845,56.000000,2.000000
315790.61804199,234933.45410156,21.84499931,0,0.333333,1,11.000000,-9.000000,0.000000,1.000000,1.000000,1.000000,391898.859845,74.000000,2.000000
315790.70800781,234933.54394531,21.84600067,0,0.333333,1,11.000000,-9.000000,0.000000,1.000000,1.000000,1.000000,391898.859845,88.000000,2.000000
315790.80102539,234933.63916016,21.85000038,0,0.333333,1,11.000000,-9.000000,0.000000,1.000000,1.000000,1.000000,391898.859845,72.000000,2.000000
315790.89794922,234933.73779297,21.84799957,0,0.333333,1,11.000000,-9.000000,0.000000,1.000000,1.000000,1.000000,391898.859845,91.000000,2.000000
315790.98400879,234933.82421875,21.85799980,0,0.333333,1,11.000000,-9.000000,0.000000,1.000000,1.000000,1.000000,391898.859845,114.000000,2.000000
315791.08605957,234933.92822266,21.91200066,0,0.333333,1,11.000000,-9.000000,0.000000,1.000000,1.000000,1.000000,391898.859845,192.000000,2.000000
315788.97399902,234932.36816406,21.85899925,0,0.333333,1,11.000000,-9.000000,0.000000,1.000000,1.000000,1.000000,391898.878521,94.000000,2.000000
315789.06604004,234932.46093750,21.85199928,0,0.333333,1,11.000000,-9.000000,0.000000,1.000000,1.000000,1.000000,391898.878521,83.000000,2.000000
315789.15295410,234932.54882813,21.84199905,0,0.333333,1,11.000000,-9.000000,0.000000,1.000000,1.000000,1.000000,391898.878521,76.000000,2.000000
315789.23803711,234932.63476563,21.84099960,0,0.333333,1,11.000000,-9.000000,0.000000,1.000000,1.000000,1.000000,391898.878521,93.000000,2.000000
315789.70397949,234933.10791016,21.86199951,0,0.333333,1,11.000000,-9.000000,0.000000,1.000000,1.000000,1.000000,391898.878643,18.000000,2.000000
315789.08496094,234932.08984375,21.86100006,0,0.333333,1,11.000000,-9.000000,0.000000,1.000000,1.000000,1.000000,391898.869244,109.000000,2.000000
315789.18298340,234932.18896484,21.85199928,0,0.333333,1,11.000000,-9.000000,0.000000,1.000000,1.000000,1.000000,391898.869244,74.000000,2.000000
315789.26696777,234932.27392578,21.85099983,0,0.333333,1,11.000000,-9.000000,0.000000,1.000000,1.000000,1.000000,391898.869244,96.000000,2.000000
315789.35595703,234932.36523438,21.84700012,0,0.333333,1,11.000000,-9.000000,0.000000,1.000000,1.000000,1.000000,391898.869244,94.000000,2.000000
315789.44104004,234932.45117188,21.84000015,0,0.333333,1,11.000000,-9.000000,0.000000,1.000000,1.000000,1.000000,391898.869244,103.000000,2.000000
315789.54296875,234932.55419922,21.85899925,0,0.333333,1,11.000000,-9.000000,0.000000,1.000000,1.000000,1.000000,391898.869244,23.000000,2.000000
315789.79003906,234933.19482422,21.85499954,0,0.333333,1,11.000000,-9.000000,0.000000,1.000000,1.000000,1.000000,391898.878643,85.000000,2.000000
315789.87805176,234933.28320313,21.85000038,0,0.333333,1,11.000000,-9.000000,0.000000,1.000000,1.000000,1.000000,391898.878643,64.000000,2.000000
315789.96203613,234933.36914063,21.84799957,0,0.333333,1,11.000000,-9.000000,0.000000,1.000000,1.000000,1.000000,391898.878643,34.000000,2.000000
315790.33996582,234933.75292969,21.90900040,0,0.333333,1,11.000000,-9.000000,0.000000,1.000000,1.000000,1.000000,391898.878643,9.000000,2.000000
315790.42602539,234933.83789063,21.84900093,0,0.333333,1,11.000000,-9.000000,0.000000,1.000000,1.000000,1.000000,391898.878643,87.000000,2.000000
315790.51098633,234933.92480469,21.84900093,0,0.333333,1,11.000000,-9.000000,0.000000,1.000000,1.000000,1.000000,391898.878643,73.000000,2.000000
315790.59899902,234934.01318359,21.84000015,0,0.333333,1,11.000000,-9.000000,0.000000,1.000000,1.000000,1.000000,391898.878643,76.000000,2.000000
315790.69104004,234934.10693359,21.84600067,0,0.333333,1,11.000000,-9.000000,0.000000,1.000000,1.000000,1.000000,391898.878643,77.000000,2.000000
315790.79101563,234934.20898438,21.85499954,0,0.333333,1,11.000000,-9.000000,0.000000,1.000000,1.000000,1.000000,391898.878643,163.000000,2.000000
315790.87597656,234934.29394531,21.85099983,0,0.333333,1,11.000000,-9.000000,0.000000,1.000000,1.000000,1.000000,391898.878643,186.000000,2.000000
315790.97802734,234934.39892578,21.93000031,0,0.333333,1,11.000000,-9.000000,0.000000,1.000000,1.000000,1.000000,391898.878643,267.000000,2.000000
315789.93994141,234933.85693359,21.84700012,0,0.333333,1,11.000000,-9.000000,0.000000,1.000000,1.000000,1.000000,391898.897320,92.000000,2.000000
315790.03295898,234933.95019531,21.84499931,0,0.333333,1,11.000000,-9.000000,0.000000,1.000000,1.000000,1.000000,391898.897320,103.000000,2.000000
315790.13000488,234934.04882813,21.84700012,0,0.333333,1,11.000000,-9.000000,0.000000,1.000000,1.000000,1.000000,391898.897320,74.000000,2.000000
315790.21594238,234934.13623047,21.84799957,0,0.333333,1,11.000000,-9.000000,0.000000,1.000000,1.000000,1.000000,391898.897320,81.000000,2.000000
315790.31298828,234934.23388672,21.85099983,0,0.333333,1,11.000000,-9.000000,0.000000,1.000000,1.000000,1.000000,391898.897320,88.000000,2.000000
315790.39904785,234934.32080078,21.85799980,0,0.333333,1,11.000000,-9.000000,0.000000,1.000000,1.000000,1.000000,391898.897320,192.000000,2.000000
315790.48706055,234934.41113281,21.84600067,0,0.333333,1,11.000000,-9.000000,0.000000,1.000000,1.000000,1.000000,391898.897320,141.000000,2.000000
315790.57495117,234934.50000000,21.86400032,0,0.333333,1,11.000000,-9.000000,0.000000,1.000000,1.000000,1.000000,391898.897320,174.000000,2.000000
315788.87805176,234932.51806641,21.90299988,0,0.333333,1,11.000000,-9.000000,0.000000,1.000000,1.000000,1.000000,391898.887921,105.000000,2.000000
315788.96398926,234932.60498047,21.85099983,0,0.333333,1,11.000000,-9.000000,0.000000,1.000000,1.000000,1.000000,391898.887921,93.000000,2.000000
315789.05505371,234932.69677734,21.84099960,0,0.333333,1,11.000000,-9.000000,0.000000,1.000000,1.000000,1.000000,391898.887921,39.000000,2.000000
315789.69396973,234933.34277344,21.84199905,0,0.333333,1,11.000000,-9.000000,0.000000,1.000000,1.000000,1.000000,391898.887921,8.000000,2.000000
315790.14294434,234933.79785156,21.84199905,0,0.333333,1,11.000000,-9.000000,0.000000,1.000000,1.000000,1.000000,391898.887921,29.000000,2.000000
315790.23095703,234933.88720703,21.83200073,0,0.333333,1,11.000000,-9.000000,0.000000,1.000000,1.000000,1.000000,391898.887921,55.000000,2.000000
315790.32397461,234933.98095703,21.83600044,0,0.333333,1,11.000000,-9.000000,0.000000,1.000000,1.000000,1.000000,391898.887921,100.000000,2.000000
315790.41699219,234934.07519531,21.84600067,0,0.333333,1,11.000000,-9.000000,0.000000,1.000000,1.000000,1.000000,391898.888043,88.000000,2.000000
315790.50097656,234934.16113281,21.85499954,0,0.333333,1,11.000000,-9.000000,0.000000,1.000000,1.000000,1.000000,391898.888043,76.000000,2.000000
315790.58996582,234934.25000000,21.84399986,0,0.333333,1,11.000000,-9.000000,0.000000,1.000000,1.000000,1.000000,391898.888043,172.000000,2.000000
315790.68298340,234934.34423828,21.85000038,0,0.333333,1,11.000000,-9.000000,0.000000,1.000000,2.000000,1.000000,391898.888043,159.000000,4.000000
315790.78198242,234934.44384766,21.85199928,0,0.333333,1,11.000000,-9.000000,0.000000,1.000000,1.000000,1.000000,391898.888043,148.000000,4.000000
315790.86596680,234934.52978516,21.85499954,0,0.333333,1,11.000000,-9.000000,0.000000,1.000000,1.000000,1.000000,391898.888043,174.000000,4.000000
315788.81005859,234932.99023438,21.85199928,0,0.333333,1,11.000000,-9.000000,0.000000,1.000000,1.000000,1.000000,391898.906720,8.000000,4.000000
315788.90100098,234933.08300781,21.87899971,0,0.333333,1,11.000000,-9.000000,0.000000,1.000000,1.000000,1.000000,391898.906720,12.000000,2.000000
315789.44995117,234933.63916016,21.88299942,0,0.333333,1,11.000000,-9.000000,0.000000,1.000000,1.000000,1.000000,391898.906720,12.000000,2.000000
315788.85998535,234932.76318359,21.84399986,0,0.333333,1,11.000000,-9.000000,0.000000,1.000000,1.000000,1.000000,391898.897320,105.000000,2.000000
315788.95202637,234932.85693359,21.90699959,0,0.333333,1,11.000000,-9.000000,0.000000,1.000000,1.000000,1.000000,391898.897320,7.000000,4.000000
315789.85302734,234933.76904297,21.85799980,0,0.333333,1,11.000000,-9.000000,0.000000,1.000000,1.000000,1.000000,391898.897320,49.000000,2.000000
315789.53100586,234933.72021484,21.84199905,0,0.333333,1,11.000000,-9.000000,0.000000,1.000000,1.000000,1.000000,391898.906720,16.000000,2.000000
315789.62805176,234933.81787109,21.84600067,0,0.333333,1,11.000000,-9.000000,0.000000,1.000000,1.000000,1.000000,391898.906720,9.000000,2.000000
315789.71301270,234933.90380859,21.83900070,0,0.333333,1,11.000000,-9.000000,0.000000,1.000000,1.000000,1.000000,391898.906720,75.000000,2.000000
315789.80395508,234933.99609375,21.84099960,0,0.333333,1,11.000000,-9.000000,0.000000,1.000000,1.000000,1.000000,391898.906720,73.000000,2.000000
315789.88903809,234934.08203125,21.84900093,0,0.333333,1,11.000000,-9.000000,0.000000,1.000000,1.000000,1.000000,391898.906720,68.000000,2.000000
315789.98498535,234934.17919922,21.84300041,0,0.333333,1,11.000000,-9.000000,0.000000,1.000000,1.000000,1.000000,391898.906720,102.000000,2.000000
315790.07995605,234934.27490234,21.85600090,0,0.333333,1,11.000000,-9.000000,0.000000,1.000000,1.000000,1.000000,391898.906720,151.000000,2.000000
315790.17004395,234934.36621094,21.84799957,0,0.333333,1,11.000000,-9.000000,0.000000,1.000000,1.000000,1.000000,391898.906720,198.000000,2.000000
315790.26794434,234934.46679688,21.91399956,0,0.333333,1,11.000000,-9.000000,0.000000,1.000000,1.000000,1.000000,391898.906720,264.000000,2.000000
315788.70996094,234933.43701172,21.84499931,0,0.333333,1,11.000000,-9.000000,0.000000,1.000000,1.000000,1.000000,391898.925396,68.000000,2.000000
315788.79394531,234933.52197266,21.84900093,0,0.333333,1,11.000000,-9.000000,0.000000,1.000000,1.000000,1.000000,391898.925396,79.000000,2.000000
315788.89099121,234933.62011719,21.84499931,0,0.333333,1,11.000000,-9.000000,0.000000,1.000000,1.000000,1.000000,391898.925396,82.000000,2.000000
315788.97705078,234933.70703125,21.84399986,0,0.333333,1,11.000000,-9.000000,0.000000,1.000000,1.000000,1.000000,391898.925396,100.000000,2.000000
315789.06799316,234933.79882813,21.83699989,0,0.333333,1,11.000000,-9.000000,0.000000,1.000000,1.000000,1.000000,391898.925396,90.000000,2.000000
315789.15295410,234933.88476563,21.85600090,0,0.333333,1,11.000000,-9.000000,0.000000,1.000000,1.000000,1.000000,391898.925396,67.000000,2.000000
315789.25000000,234933.98291016,21.85000038,0,0.333333,1,11.000000,-9.000000,0.000000,1.000000,1.000000,1.000000,391898.925518,100.000000,2.000000
315789.34301758,234934.07714844,21.85199928,0,0.333333,1,11.000000,-9.000000,0.000000,1.000000,1.000000,1.000000,391898.925518,79.000000,2.000000
315789.43505859,234934.17089844,21.86300087,0,0.333333,1,11.000000,-9.000000,0.000000,1.000000,1.000000,1.000000,391898.925518,138.000000,2.000000
315788.81994629,234933.31982422,21.85499954,0,0.333333,1,11.000000,-9.000000,0.000000,1.000000,1.000000,1.000000,391898.916119,28.000000,2.000000
315789.00097656,234933.50292969,21.84799957,0,0.333333,1,11.000000,-9.000000,0.000000,1.000000,1.000000,1.000000,391898.916119,46.000000,2.000000
315789.08605957,234933.58886719,21.83200073,0,0.333333,1,11.000000,-9.000000,0.000000,1.000000,1.000000,1.000000,391898.916119,44.000000,2.000000
315789.17602539,234933.68017578,21.83699989,0,0.333333,1,11.000000,-9.000000,0.000000,1.000000,1.000000,1.000000,391898.916119,13.000000,2.000000
315789.26794434,234933.77294922,21.84000015,0,0.333333,1,11.000000,-9.000000,0.000000,1.000000,1.000000,1.000000,391898.916119,59.000000,2.000000
315789.36499023,234933.87109375,21.84099960,0,0.333333,1,11.000000,-9.000000,0.000000,1.000000,1.000000,1.000000,391898.916119,83.000000,2.000000
315789.45300293,234933.95996094,21.84600067,0,0.333333,1,11.000000,-9.000000,0.000000,1.000000,1.000000,1.000000,391898.916119,85.000000,2.000000
315789.55004883,234934.05810547,21.84600067,0,0.333333,1,11.000000,-9.000000,0.000000,1.000000,1.000000,1.000000,391898.916119,76.000000,2.000000
315789.63500977,234934.14306641,21.85099983,0,0.333333,1,11.000000,-9.000000,0.000000,1.000000,1.000000,1.000000,391898.916119,69.000000,2.000000
315789.72497559,234934.23486328,21.85899925,0,0.333333,1,11.000000,-9.000000,0.000000,1.000000,1.000000,1.000000,391898.916119,162.000000,2.000000
315789.81298828,234934.32421875,21.86199951,0,0.333333,1,11.000000,-9.000000,0.000000,1.000000,1.000000,1.000000,391898.916119,172.000000,2.000000
315789.53002930,234934.26708984,21.89999962,0,0.333333,1,11.000000,-9.000000,0.000000,1.000000,1.000000,1.000000,391898.925518,179.000000,2.000000
315788.60498047,234933.60595703,21.87100029,0,0.333333,1,11.000000,-9.000000,0.000000,1.000000,1.000000,1.000000,391898.934796,93.000000,2.000000
315788.69396973,234933.69580078,21.84799957,0,0.333333,1,11.000000,-9.000000,0.000000,1.000000,1.000000,1.000000,391898.934796,63.000000,2.000000
315788.78503418,234933.78808594,21.85700035,0,0.333333,1,11.000000,-9.000000,0.000000,1.000000,1.000000,1.000000,391898.934796,85.000000,2.000000
315788.88000488,234933.88281250,21.85600090,0,0.333333,1,11.000000,-9.000000,0.000000,1.000000,1.000000,1.000000,391898.934796,117.000000,2.000000
315788.96899414,234933.97314453,21.85700035,0,0.333333,1,11.000000,-9.000000,0.000000,1.000000,1.000000,1.000000,391898.934796,157.000000,2.000000
315789.05395508,234934.05908203,21.85799980,0,0.333333,1,11.000000,-9.000000,0.000000,1.000000,1.000000,1.000000,391898.934796,150.000000,2.000000
315789.14599609,234934.15185547,21.87800026,0,0.333333,1,11.000000,-9.000000,0.000000,1.000000,1.000000,1.000000,391898.934796,172.000000,2.000000
315788.57800293,234933.77099609,21.85899925,0,0.333333,1,11.000000,-9.000000,0.000000,1.000000,1.000000,1.000000,391898.944195,113.000000,2.000000
315788.67700195,234933.87109375,21.85600090,0,0.333333,1,11.000000,-9.000000,0.000000,1.000000,1.000000,1.000000,391898.944195,95.000000,2.000000
315788.76098633,234933.95605469,21.86300087,0,0.333333,1,11.000000,-9.000000,0.000000,1.000000,1.000000,1.000000,391898.944195,102.000000,2.000000
315788.85900879,234934.05517578,21.86899948,0,0.333333,1,11.000000,-9.000000,0.000000,1.000000,1.000000,1.000000,391898.944195,233.000000,2.000000
315791.50000000,234932.14599609,21.89800072,0,0.333333,1,12.000000,9.000000,0.000000,1.000000,2.000000,2.000000,392195.439434,37.000000,4.000000
315791.58703613,234932.24023438,22.00000000,0,0.333333,1,12.000000,9.000000,0.000000,1.000000,1.000000,1.000000,392195.439434,162.000000,4.000000
315791.45800781,234932.49804688,21.88400078,0,0.333333,1,12.000000,9.000000,0.000000,1.000000,1.000000,1.000000,392195.458111,133.000000,2.000000
315791.34704590,234932.10888672,21.88899994,0,0.333333,1,12.000000,9.000000,0.000000,1.000000,2.000000,2.000000,392195.448712,88.000000,2.000000
315791.44396973,234932.20898438,21.88500023,0,0.333333,1,12.000000,9.000000,0.000000,1.000000,1.000000,1.000000,392195.448712,143.000000,2.000000
315791.53405762,234932.30175781,21.88999939,0,0.333333,1,12.000000,9.000000,0.000000,1.000000,1.000000,1.000000,392195.448712,139.000000,2.000000
315790.84802246,234931.99023438,21.89399910,0,0.333333,1,12.000000,9.000000,0.000000,1.000000,2.000000,2.000000,392195.467511,82.000000,2.000000
315790.94897461,234932.09423828,21.88699913,0,0.333333,1,12.000000,9.000000,0.000000,1.000000,2.000000,1.000000,392195.467511,146.000000,4.000000
315791.03698730,234932.18505859,21.88100052,0,0.333333,1,12.000000,9.000000,0.000000,1.000000,1.000000,1.000000,392195.467511,164.000000,2.000000
315791.12695313,234932.27880859,21.88699913,0,0.333333,1,12.000000,9.000000,0.000000,1.000000,1.000000,1.000000,392195.467511,172.000000,2.000000
315791.21704102,234932.37109375,21.88299942,0,0.333333,1,12.000000,9.000000,0.000000,1.000000,1.000000,1.000000,392195.467511,147.000000,2.000000
315791.31604004,234932.47412109,21.87599945,0,0.333333,1,12.000000,9.000000,0.000000,1.000000,1.000000,1.000000,392195.467511,151.000000,2.000000
315791.41003418,234932.57080078,21.87999916,0,0.333333,1,12.000000,9.000000,0.000000,1.000000,1.000000,1.000000,392195.467511,159.000000,2.000000
315791.48803711,234932.65576172,21.98299980,0,0.333333,1,12.000000,9.000000,0.000000,1.000000,1.000000,1.000000,392195.467511,217.000000,2.000000
315790.99499512,234932.02001953,21.90399933,0,0.333333,1,12.000000,9.000000,0.000000,1.000000,2.000000,2.000000,392195.458111,47.000000,4.000000
315791.08398438,234932.11083984,21.87899971,0,0.333333,1,12.000000,9.000000,0.000000,1.000000,1.000000,1.000000,392195.458111,140.000000,2.000000
315791.17700195,234932.20800781,21.88100052,0,0.333333,1,12.000000,9.000000,0.000000,1.000000,1.000000,1.000000,392195.458111,147.000000,2.000000
315791.27197266,234932.30615234,21.89100075,0,0.333333,1,12.000000,9.000000,0.000000,1.000000,1.000000,1.000000,392195.458111,169.000000,2.000000
315791.37194824,234932.40917969,21.88199997,0,0.333333,1,12.000000,9.000000,0.000000,1.000000,1.000000,1.000000,392195.458111,174.000000,2.000000
315790.44604492,234931.80810547,22.00200081,0,0.333333,1,12.000000,9.000000,0.000000,1.000000,2.000000,2.000000,392195.476910,22.000000,4.000000
315790.55297852,234931.91406250,21.88599968,0,0.333333,1,12.000000,9.000000,0.000000,1.000000,2.000000,2.000000,392195.476910,120.000000,2.000000
315790.65002441,234932.01513672,21.88999939,0,0.333333,1,12.000000,9.000000,0.000000,1.000000,1.000000,1.000000,392195.476910,171.000000,2.000000
315790.74694824,234932.11621094,21.88800049,0,0.333333,1,12.000000,9.000000,0.000000,1.000000,1.000000,1.000000,392195.476910,151.000000,2.000000
315790.83496094,234932.20605469,21.87800026,0,0.333333,1,12.000000,9.000000,0.000000,1.000000,1.000000,1.000000,392195.476910,132.000000,2.000000
315790.93603516,234932.31005859,21.87700081,0,0.333333,1,12.000000,9.000000,0.000000,1.000000,1.000000,1.000000,392195.476910,143.000000,2.000000
315791.02404785,234932.40087891,21.87899971,0,0.333333,1,12.000000,9.000000,0.000000,1.000000,1.000000,1.000000,392195.476910,126.000000,2.000000
315791.11401367,234932.49511719,21.87500000,0,0.333333,1,12.000000,9.000000,0.000000,1.000000,1.000000,1.000000,392195.476910,117.000000,2.000000
315791.20104980,234932.58496094,21.87400055,0,0.333333,1,12.000000,9.000000,0.000000,1.000000,1.000000,1.000000,392195.476910,123.000000,2.000000
315791.30200195,234932.68896484,21.87100029,0,0.333333,1,12.000000,9.000000,0.000000,1.000000,1.000000,1.000000,392195.476910,159.000000,2.000000
315791.39599609,234932.78613281,21.88299942,0,0.333333,1,12.000000,9.000000,0.000000,1.000000,1.000000,1.000000,392195.476910,144.000000,2.000000
315790.29504395,234931.81787109,21.90200043,0,0.333333,1,12.000000,9.000000,0.000000,1.000000,2.000000,2.000000,392195.486187,47.000000,4.000000
315790.38098145,234931.90576172,21.88999939,0,0.333333,1,12.000000,9.000000,0.000000,1.000000,1.000000,1.000000,392195.486187,141.000000,2.000000
315790.47204590,234932.00000000,21.88999939,0,0.333333,1,12.000000,9.000000,0.000000,1.000000,1.000000,1.000000,392195.486187,128.000000,2.000000
315790.56396484,234932.09521484,21.87899971,0,0.333333,1,12.000000,9.000000,0.000000,1.000000,1.000000,1.000000,392195.486187,148.000000,2.000000
315790.66394043,234932.19824219,21.87599945,0,0.333333,1,12.000000,9.000000,0.000000,1.000000,1.000000,1.000000,392195.486309,133.000000,2.000000
315790.75598145,234932.29394531,21.88299942,0,0.333333,1,12.000000,9.000000,0.000000,1.000000,1.000000,1.000000,392195.486309,118.000000,2.000000
315790.84997559,234932.38916016,21.86800003,0,0.333333,1,12.000000,9.000000,0.000000,1.000000,1.000000,1.000000,392195.486309,117.000000,2.000000
315790.94299316,234932.48583984,21.87700081,0,0.333333,1,12.000000,9.000000,0.000000,1.000000,1.000000,1.000000,392195.486309,137.000000,2.000000
315791.03698730,234932.58398438,21.87199974,0,0.333333,1,12.000000,9.000000,0.000000,1.000000,1.000000,1.000000,392195.486309,144.000000,2.000000
315791.12304688,234932.67187500,21.87000084,0,0.333333,1,12.000000,9.000000,0.000000,1.000000,1.000000,1.000000,392195.486309,143.000000,2.000000
315791.21496582,234932.76708984,21.87199974,0,0.333333,1,12.000000,9.000000,0.000000,1.000000,1.000000,1.000000,392195.486309,117.000000,2.000000
315791.31005859,234932.86621094,21.87400055,0,0.333333,1,12.000000,9.000000,0.000000,1.000000,1.000000,1.000000,392195.486309,114.000000,2.000000
315791.39599609,234932.95898438,21.97999954,0,0.333333,1,12.000000,9.000000,0.000000,1.000000,1.000000,1.000000,392195.486309,229.000000,2.000000
315789.96997070,234931.72314453,21.89699936,0,0.333333,1,12.000000,9.000000,0.000000,1.000000,2.000000,2.000000,392195.495587,51.000000,2.000000
315790.06494141,234931.81982422,21.89100075,0,0.333333,1,12.000000,9.000000,0.000000,1.000000,1.000000,1.000000,392195.495587,116.000000,2.000000
315790.15600586,234931.91503906,21.88699913,0,0.333333,1,12.000000,9.000000,0.000000,1.000000,1.000000,1.000000,392195.495587,131.000000,2.000000
315790.25402832,234932.01611328,21.87800026,0,0.333333,1,12.000000,9.000000,0.000000,1.000000,1.000000,1.000000,392195.495587,140.000000,2.000000
315790.34594727,234932.11083984,21.87299919,0,0.333333,1,12.000000,9.000000,0.000000,1.000000,1.000000,1.000000,392195.495587,158.000000,2.000000
315790.43200684,234932.19921875,21.87199974,0,0.333333,1,12.000000,9.000000,0.000000,1.000000,1.000000,1.000000,392195.495587,123.000000,2.000000
315790.52600098,234932.29589844,21.87000084,0,0.333333,1,12.000000,9.000000,0.000000,1.000000,1.000000,1.000000,392195.495587,151.000000,2.000000
315790.62097168,234932.39501953,21.87599945,0,0.333333,1,12.000000,9.000000,0.000000,1.000000,1.000000,1.000000,392195.495587,130.000000,2.000000
315790.71801758,234932.49511719,21.87899971,0,0.333333,1,12.000000,9.000000,0.000000,1.000000,1.000000,1.000000,392195.495587,135.000000,2.000000
315790.80603027,234932.58496094,21.86700058,0,0.333333,1,12.000000,9.000000,0.000000,1.000000,1.000000,1.000000,392195.495587,123.000000,2.000000
315790.90600586,234932.68896484,21.87299919,0,0.333333,1,12.000000,9.000000,0.000000,1.000000,1.000000,1.000000,392195.495587,141.000000,2.000000
315790.99401855,234932.77978516,21.87500000,0,0.333333,1,12.000000,9.000000,0.000000,1.000000,1.000000,1.000000,392195.495587,120.000000,2.000000
315791.08398438,234932.87402344,21.86800003,0,0.333333,1,12.000000,9.000000,0.000000,1.000000,1.000000,1.000000,392195.495587,128.000000,2.000000
315791.17102051,234932.96289063,21.86899948,0,0.333333,1,12.000000,9.000000,0.000000,1.000000,1.000000,1.000000,392195.495587,126.000000,2.000000
315791.27197266,234933.06787109,21.87299919,0,0.333333,1,12.000000,9.000000,0.000000,1.000000,1.000000,1.000000,392195.495587,146.000000,2.000000
315791.35302734,234933.15576172,21.98600006,0,0.333333,1,12.000000,9.000000,0.000000,1.000000,1.000000,1.000000,392195.495587,164.000000,2.000000
315791.20996094,234933.39892578,21.86700058,0,0.333333,1,12.000000,9.000000,0.000000,1.000000,1.000000,1.000000,392195.514386,134.000000,2.000000
315789.68603516,234931.62304688,21.95499992,0,0.333333,1,12.000000,8.000000,0.000000,1.000000,2.000000,2.000000,392195.504986,25.000000,4.000000
315789.78503418,234931.72119141,21.88500023,0,0.333333,1,12.000000,9.000000,0.000000,1.000000,2.000000,2.000000,392195.504986,139.000000,2.000000
315789.87304688,234931.81298828,21.88100052,0,0.333333,1,12.000000,9.000000,0.000000,1.000000,1.000000,1.000000,392195.504986,114.000000,2.000000
315789.97399902,234931.91699219,21.88199997,0,0.333333,1,12.000000,9.000000,0.000000,1.000000,1.000000,1.000000,392195.504986,147.000000,2.000000
315790.07104492,234932.01708984,21.86400032,0,0.333333,1,12.000000,9.000000,0.000000,1.000000,1.000000,1.000000,392195.504986,129.000000,2.000000
315790.16101074,234932.10986328,21.86700058,0,0.333333,1,12.000000,9.000000,0.000000,1.000000,1.000000,1.000000,392195.504986,128.000000,2.000000
315790.25598145,234932.20800781,21.87400055,0,0.333333,1,12.000000,9.000000,0.000000,1.000000,1.000000,1.000000,392195.504986,138.000000,2.000000
315790.34802246,234932.30322266,21.86400032,0,0.333333,1,12.000000,9.000000,0.000000,1.000000,1.000000,1.000000,392195.504986,151.000000,2.000000
315790.43505859,234932.39306641,21.86700058,0,0.333333,1,12.000000,9.000000,0.000000,1.000000,1.000000,1.000000,392195.504986,113.000000,2.000000
315790.52600098,234932.48681641,21.86899948,0,0.333333,1,12.000000,9.000000,0.000000,1.000000,1.000000,1.000000,392195.504986,149.000000,2.000000
315790.62194824,234932.58593750,21.86599922,0,0.333333,1,12.000000,9.000000,0.000000,1.000000,1.000000,1.000000,392195.504986,150.000000,2.000000
315790.72094727,234932.68896484,21.87199974,0,0.333333,1,12.000000,9.000000,0.000000,1.000000,1.000000,1.000000,392195.504986,174.000000,2.000000
315790.80895996,234932.77880859,21.86599922,0,0.333333,1,12.000000,9.000000,0.000000,1.000000,1.000000,1.000000,392195.504986,129.000000,2.000000
315790.90795898,234932.88085938,21.86199951,0,0.333333,1,12.000000,9.000000,0.000000,1.000000,1.000000,1.000000,392195.504986,138.000000,2.000000
315790.99499512,234932.97216797,21.86300087,0,0.333333,1,12.000000,9.000000,0.000000,1.000000,1.000000,1.000000,392195.504986,126.000000,2.000000
315791.08801270,234933.06787109,21.86300087,0,0.333333,1,12.000000,9.000000,0.000000,1.000000,1.000000,1.000000,392195.504986,128.000000,2.000000
315791.17395020,234933.15722656,21.87000084,0,0.333333,1,12.000000,9.000000,0.000000,1.000000,2.000000,1.000000,392195.504986,142.000000,4.000000
315791.27099609,234933.25781250,21.87800026,0,0.333333,1,12.000000,9.000000,0.000000,1.000000,1.000000,1.000000,392195.504986,123.000000,2.000000
315789.26000977,234931.52978516,21.90999985,0,0.333333,1,12.000000,8.000000,0.000000,1.000000,2.000000,2.000000,392195.523663,70.000000,2.000000
315789.35705566,234931.62890625,21.89200020,0,0.333333,1,12.000000,8.000000,0.000000,1.000000,1.000000,1.000000,392195.523663,125.000000,2.000000
315789.45703125,234931.73193359,21.88500023,0,0.333333,1,12.000000,8.000000,0.000000,1.000000,1.000000,1.000000,392195.523663,176.000000,2.000000
315789.54602051,234931.82324219,21.87400055,0,0.333333,1,12.000000,9.000000,0.000000,1.000000,1.000000,1.000000,392195.523663,148.000000,2.000000
315789.64697266,234931.92822266,21.86899948,0,0.333333,1,12.000000,9.000000,0.000000,1.000000,1.000000,1.000000,392195.523785,125.000000,2.000000
315789.73205566,234932.01611328,21.87400055,0,0.333333,1,12.000000,9.000000,0.000000,1.000000,1.000000,1.000000,392195.523785,185.000000,2.000000
315789.82495117,234932.11181641,21.85799980,0,0.333333,1,12.000000,9.000000,0.000000,1.000000,1.000000,1.000000,392195.523785,140.000000,2.000000
315789.91198730,234932.20214844,21.86400032,0,0.333333,1,12.000000,9.000000,0.000000,1.000000,1.000000,1.000000,392195.523785,121.000000,2.000000
315790.01293945,234932.30615234,21.86400032,0,0.333333,1,12.000000,9.000000,0.000000,1.000000,1.000000,1.000000,392195.523785,94.000000,2.000000
315790.10400391,234932.40087891,21.87100029,0,0.333333,1,12.000000,9.000000,0.000000,1.000000,1.000000,1.000000,392195.523785,84.000000,2.000000
315790.19702148,234932.49609375,21.85700035,0,0.333333,1,12.000000,9.000000,0.000000,1.000000,1.000000,1.000000,392195.523785,73.000000,2.000000
315790.29199219,234932.59423828,21.85400009,0,0.333333,1,12.000000,9.000000,0.000000,1.000000,1.000000,1.000000,392195.523785,94.000000,2.000000
315790.38598633,234932.69091797,21.86300087,0,0.333333,1,12.000000,9.000000,0.000000,1.000000,1.000000,1.000000,392195.523785,87.000000,2.000000
315790.47204590,234932.77978516,21.85600090,0,0.333333,1,12.000000,9.000000,0.000000,1.000000,1.000000,1.000000,392195.523785,74.000000,2.000000
315790.56396484,234932.87500000,21.85499954,0,0.333333,1,12.000000,9.000000,0.000000,1.000000,1.000000,1.000000,392195.523785,77.000000,2.000000
315790.65600586,234932.97119141,21.86800003,0,0.333333,1,12.000000,9.000000,0.000000,1.000000,1.000000,1.000000,392195.523785,90.000000,2.000000
315790.75695801,234933.07617188,21.87000084,0,0.333333,1,12.000000,9.000000,0.000000,1.000000,1.000000,1.000000,392195.523785,72.000000,2.000000
315790.84301758,234933.16406250,21.87100029,0,0.333333,1,12.000000,9.000000,0.000000,1.000000,1.000000,1.000000,392195.523785,60.000000,2.000000
315790.94396973,234933.26806641,21.86100006,0,0.333333,1,12.000000,9.000000,0.000000,1.000000,1.000000,1.000000,392195.523785,83.000000,2.000000
315791.03002930,234933.35693359,21.86400032,0,0.333333,1,12.000000,9.000000,0.000000,1.000000,1.000000,1.000000,392195.523785,94.000000,2.000000
315791.12194824,234933.45312500,21.87299919,0,0.333333,1,12.000000,9.000000,0.000000,1.000000,1.000000,1.000000,392195.523785,144.000000,2.000000
315791.20703125,234933.54101563,21.88800049,0,0.333333,1,12.000000,9.000000,0.000000,1.000000,1.000000,1.000000,392195.523785,226.000000,2.000000
315789.54199219,234931.67675781,21.89399910,0,0.333333,1,12.000000,8.000000,0.000000,1.000000,2.000000,2.000000,392195.514386,147.000000,2.000000
315789.63793945,234931.77587891,21.89500046,0,0.333333,1,12.000000,9.000000,0.000000,1.000000,1.000000,1.000000,392195.514386,156.000000,2.000000
315789.72998047,234931.87109375,21.88500023,0,0.333333,1,12.000000,9.000000,0.000000,1.000000,1.000000,1.000000,392195.514386,128.000000,2.000000
315789.81896973,234931.96191406,21.88199997,0,0.333333,1,12.000000,9.000000,0.000000,1.000000,1.000000,1.000000,392195.514386,117.000000,2.000000
315789.91296387,234932.05908203,21.87000084,0,0.333333,1,12.000000,9.000000,0.000000,1.000000,1.000000,1.000000,392195.514386,163.000000,2.000000
315790.00500488,234932.15380859,21.87599945,0,0.333333,1,12.000000,9.000000,0.000000,1.000000,1.000000,1.000000,392195.514386,157.000000,2.000000
315790.10400391,234932.25683594,21.87100029,0,0.333333,1,12.000000,9.000000,0.000000,1.000000,1.000000,1.000000,392195.514386,122.000000,2.000000
315790.19396973,234932.34912109,21.86499977,0,0.333333,1,12.000000,9.000000,0.000000,1.000000,1.000000,1.000000,392195.514386,91.000000,2.000000
