//X,Y,Z,Rf,Gf,Bf,Point Source ID,Scan Angle Rank,Flightline Edge,Scan Direction,Number of Returns,Return Number,Time,Intensity,Classification
315792.61401367,234930.18603516,24.36700058,0,0.333333,1,12.000000,9.000000,0.000000,1.000000,2.000000,1.000000,392195.261334,13.000000,4.000000
315790.95996094,234928.71582031,24.34600067,0,0.333333,1,12.000000,8.000000,0.000000,1.000000,2.000000,1.000000,392195.270611,40.000000,4.000000
315791.05395508,234928.81298828,24.33799934,0,0.333333,1,12.000000,8.000000,0.000000,1.000000,1.000000,1.000000,392195.270611,637.000000,2.000000
315791.14697266,234928.91210938,24.35799980,0,0.333333,1,12.000000,8.000000,0.000000,1.000000,1.000000,1.000000,392195.270611,816.000000,2.000000
315791.23205566,234928.99902344,24.35099983,0,0.333333,1,12.000000,8.000000,0.000000,1.000000,1.000000,1.000000,392195.270611,688.000000,2.000000
315791.33300781,234929.10498047,24.35799980,0,0.333333,1,12.000000,8.000000,0.000000,1.000000,1.000000,1.000000,392195.270611,975.000000,2.000000
315791.41894531,234929.19384766,24.35199928,0,0.333333,1,12.000000,8.000000,0.000000,1.000000,1.000000,1.000000,392195.270611,624.000000,2.000000
315791.50500488,234929.28417969,24.36599922,0,0.333333,1,12.000000,8.000000,0.000000,1.000000,1.000000,1.000000,392195.270611,704.000000,2.000000
315791.59094238,234929.37402344,24.36000061,0,0.333333,1,12.000000,8.000000,0.000000,1.000000,1.000000,1.000000,392195.270611,608.000000,2.000000
315791.69604492,234929.48193359,24.34000015,0,0.333333,1,12.000000,8.000000,0.000000,1.000000,1.000000,1.000000,392195.270611,754.000000,2.000000
315790.78698730,234928.70605469,24.34900093,0,0.333333,1,12.000000,8.000000,0.000000,1.000000,2.000000,1.000000,392195.280011,91.000000,4.000000
315790.87695313,234928.79980469,24.35700035,0,0.333333,1,12.000000,8.000000,0.000000,1.000000,1.000000,1.000000,392195.280011,1083.000000,2.000000
315790.96398926,234928.89013672,24.33300018,0,0.333333,1,12.000000,8.000000,0.000000,1.000000,1.000000,1.000000,392195.280011,784.000000,2.000000
315791.06201172,234928.99316406,24.34499931,0,0.333333,1,12.000000,8.000000,0.000000,1.000000,1.000000,1.000000,392195.280011,800.000000,2.000000
315791.78698730,234929.57812500,24.36100006,0,0.333333,1,12.000000,9.000000,0.000000,1.000000,1.000000,1.000000,392195.270611,1001.000000,2.000000
315791.87304688,234929.66699219,24.36499977,0,0.333333,1,12.000000,9.000000,0.000000,1.000000,1.000000,1.000000,392195.270611,657.000000,2.000000
315791.96997070,234929.76708984,24.34600067,0,0.333333,1,12.000000,9.000000,0.000000,1.000000,1.000000,1.000000,392195.270611,678.000000,2.000000
315792.06103516,234929.86181641,24.34399986,0,0.333333,1,12.000000,9.000000,0.000000,1.000000,1.000000,1.000000,392195.270611,833.000000,2.000000
315792.14697266,234929.95214844,24.35199928,0,0.333333,1,12.000000,9.000000,0.000000,1.000000,1.000000,1.000000,392195.270611,650.000000,2.000000
315792.23400879,234930.04199219,24.36800003,0,0.333333,1,12.000000,9.000000,0.000000,1.000000,1.000000,1.000000,392195.270611,618.000000,2.000000
315792.32800293,234930.14111328,24.37599945,0,0.333333,1,12.000000,9.000000,0.000000,1.000000,1.000000,1.000000,392195.270611,712.000000,2.000000
315792.42895508,234930.24511719,24.36199951,0,0.333333,1,12.000000,9.000000,0.000000,1.000000,1.000000,1.000000,392195.270611,697.000000,2.000000
315792.51293945,234930.33300781,24.36899948,0,0.333333,1,12.000000,9.000000,0.000000,1.000000,2.000000,1.000000,392195.270611,150.000000,4.000000
315791.15502930,234929.08886719,24.34600067,0,0.333333,1,12.000000,8.000000,0.000000,1.000000,1.000000,1.000000,392195.280011,906.000000,2.000000
315791.24401855,234929.18212891,24.35600090,0,0.333333,1,12.000000,8.000000,0.000000,1.000000,1.000000,1.000000,392195.280011,784.000000,2.000000
315791.33801270,234929.27978516,24.34799957,0,0.333333,1,12.000000,8.000000,0.000000,1.000000,1.000000,1.000000,392195.280011,784.000000,2.000000
315791.42602539,234929.37109375,24.36000061,0,0.333333,1,12.000000,8.000000,0.000000,1.000000,1.000000,1.000000,392195.280011,784.000000,2.000000
315791.51293945,234929.46191406,24.35300064,0,0.333333,1,12.000000,8.000000,0.000000,1.000000,1.000000,1.000000,392195.280011,571.000000,2.000000
315791.60595703,234929.55810547,24.35000038,0,0.333333,1,12.000000,8.000000,0.000000,1.000000,1.000000,1.000000,392195.280011,682.000000,2.000000
315791.69702148,234929.65283203,24.36800003,0,0.333333,1,12.000000,9.000000,0.000000,1.000000,1.000000,1.000000,392195.280011,623.000000,2.000000
315791.79602051,234929.75585938,24.35700035,0,0.333333,1,12.000000,9.000000,0.000000,1.000000,1.000000,1.000000,392195.280011,754.000000,2.000000
315791.88195801,234929.84521484,24.35700035,0,0.333333,1,12.000000,9.000000,0.000000,1.000000,1.000000,1.000000,392195.280011,647.000000,2.000000
315791.98095703,234929.94921875,24.37199974,0,0.333333,1,12.000000,9.000000,0.000000,1.000000,1.000000,1.000000,392195.280011,754.000000,2.000000
315792.06396484,234930.03515625,24.35199928,0,0.333333,1,12.000000,9.000000,0.000000,1.000000,1.000000,1.000000,392195.280011,716.000000,2.000000
315792.15405273,234930.12890625,24.36700058,0,0.333333,1,12.000000,9.000000,0.000000,1.000000,1.000000,1.000000,392195.280011,637.000000,2.000000
315792.24194336,234930.22021484,24.36000061,0,0.333333,1,12.000000,9.000000,0.000000,1.000000,1.000000,1.000000,392195.280011,668.000000,2.000000
315792.34204102,234930.32421875,24.36800003,0,0.333333,1,12.000000,9.000000,0.000000,1.000000,1.000000,1.000000,392195.280011,712.000000,2.000000
315792.43298340,234930.41894531,24.36499977,0,0.333333,1,12.000000,9.000000,0.000000,1.000000,2.000000,1.000000,392195.280011,769.000000,4.000000
315791.90502930,234930.13818359,24.34099960,0,0.333333,1,12.000000,9.000000,0.000000,1.000000,1.000000,1.000000,392195.298809,816.000000,2.000000
315792.00000000,234930.23779297,24.35499954,0,0.333333,1,12.000000,9.000000,0.000000,1.000000,1.000000,1.000000,392195.298809,784.000000,2.000000
315792.08605957,234930.32714844,24.36899948,0,0.333333,1,12.000000,9.000000,0.000000,1.000000,1.000000,1.000000,392195.298809,784.000000,2.000000
315792.17700195,234930.41992188,24.35099983,0,0.333333,1,12.000000,9.000000,0.000000,1.000000,1.000000,1.000000,392195.298809,784.000000,2.000000
315792.26599121,234930.51318359,24.34799957,0,0.333333,1,12.000000,9.000000,0.000000,1.000000,1.000000,1.000000,392195.298809,833.000000,2.000000
315792.35998535,234930.61083984,24.35899925,0,0.333333,1,12.000000,9.000000,0.000000,1.000000,1.000000,1.000000,392195.298809,661.000000,2.000000
315790.62902832,234928.66210938,24.35499954,0,0.333333,1,12.000000,8.000000,0.000000,1.000000,2.000000,1.000000,392195.289410,301.000000,4.000000
315790.72497559,234928.76220703,24.36899948,0,0.333333,1,12.000000,8.000000,0.000000,1.000000,1.000000,1.000000,392195.289410,1001.000000,2.000000
315790.81005859,234928.85009766,24.35600090,0,0.333333,1,12.000000,8.000000,0.000000,1.000000,1.000000,1.000000,392195.289410,637.000000,2.000000
315790.90197754,234928.94482422,24.34499931,0,0.333333,1,12.000000,8.000000,0.000000,1.000000,1.000000,1.000000,392195.289410,784.000000,2.000000
315790.98999023,234929.03613281,24.34199905,0,0.333333,1,12.000000,8.000000,0.000000,1.000000,1.000000,1.000000,392195.289410,769.000000,2.000000
315791.08703613,234929.13818359,24.36199951,0,0.333333,1,12.000000,8.000000,0.000000,1.000000,1.000000,1.000000,392195.289410,617.000000,2.000000
315791.18005371,234929.23388672,24.35499954,0,0.333333,1,12.000000,8.000000,0.000000,1.000000,1.000000,1.000000,392195.289410,625.000000,2.000000
315791.26904297,234929.32714844,24.35199928,0,0.333333,1,12.000000,8.000000,0.000000,1.000000,1.000000,1.000000,392195.289410,1027.000000,2.000000
315791.36694336,234929.42822266,24.33900070,0,0.333333,1,12.000000,8.000000,0.000000,1.000000,1.000000,1.000000,392195.289410,632.000000,2.000000
315791.45202637,234929.51708984,24.36499977,0,0.333333,1,12.000000,8.000000,0.000000,1.000000,1.000000,1.000000,392195.289410,583.000000,2.000000
315791.53894043,234929.60791016,24.35199928,0,0.333333,1,12.000000,8.000000,0.000000,1.000000,1.000000,1.000000,392195.289410,568.000000,2.000000
315791.63195801,234929.70507813,24.33600044,0,0.333333,1,12.000000,9.000000,0.000000,1.000000,1.000000,1.000000,392195.289410,769.000000,2.000000
315791.72399902,234929.80078125,24.36300087,0,0.333333,1,12.000000,9.000000,0.000000,1.000000,1.000000,1.000000,392195.289410,708.000000,2.000000
315791.82202148,234929.90185547,24.35700035,0,0.333333,1,12.000000,9.000000,0.000000,1.000000,1.000000,1.000000,392195.289410,682.000000,2.000000
315791.90600586,234929.98876953,24.36899948,0,0.333333,1,12.000000,9.000000,0.000000,1.000000,1.000000,1.000000,392195.289410,627.000000,2.000000
315792.00695801,234930.09521484,24.35499954,0,0.333333,1,12.000000,9.000000,0.000000,1.000000,1.000000,1.000000,392195.289410,716.000000,2.000000
315792.09399414,234930.18408203,24.34000015,0,0.333333,1,12.000000,9.000000,0.000000,1.000000,1.000000,1.000000,392195.289410,769.000000,2.000000
315792.18005371,234930.27490234,24.37999916,0,0.333333,1,12.000000,9.000000,0.000000,1.000000,1.000000,1.000000,392195.289410,631.000000,2.000000
315792.26599121,234930.36523438,24.36000061,0,0.333333,1,12.000000,9.000000,0.000000,1.000000,1.000000,1.000000,392195.289410,685.000000,2.000000
315792.36804199,234930.47021484,24.35199928,0,0.333333,1,12.000000,9.000000,0.000000,1.000000,1.000000,1.000000,392195.289410,784.000000,2.000000
315792.45996094,234930.56689453,24.37100029,0,0.333333,1,12.000000,9.000000,0.000000,1.000000,2.000000,1.000000,392195.289410,80.000000,4.000000
315790.36901855,234928.77783203,24.35899925,0,0.333333,1,12.000000,8.000000,0.000000,1.000000,1.000000,1.000000,392195.308087,688.000000,2.000000
315790.47094727,234928.88281250,24.34900093,0,0.333333,1,12.000000,8.000000,0.000000,1.000000,1.000000,1.000000,392195.308087,637.000000,2.000000
315790.55798340,234928.97314453,24.33300018,0,0.333333,1,12.000000,8.000000,0.000000,1.000000,1.000000,1.000000,392195.308087,887.000000,2.000000
315790.65295410,234929.07177734,24.34700012,0,0.333333,1,12.000000,8.000000,0.000000,1.000000,1.000000,1.000000,392195.308087,816.000000,2.000000
315790.73706055,234929.16015625,24.34600067,0,0.333333,1,12.000000,8.000000,0.000000,1.000000,1.000000,1.000000,392195.308087,784.000000,2.000000
315790.82995605,234929.25585938,24.34900093,0,0.333333,1,12.000000,8.000000,0.000000,1.000000,1.000000,1.000000,392195.308087,815.000000,2.000000
315790.91601563,234929.34619141,24.35400009,0,0.333333,1,12.000000,8.000000,0.000000,1.000000,1.000000,1.000000,392195.308087,887.000000,2.000000
315791.01196289,234929.44580078,24.36199951,0,0.333333,1,12.000000,8.000000,0.000000,1.000000,1.000000,1.000000,392195.308087,693.000000,2.000000
315791.10498047,234929.54296875,24.36400032,0,0.333333,1,12.000000,8.000000,0.000000,1.000000,1.000000,1.000000,392195.308087,650.000000,2.000000
315791.19702148,234929.63818359,24.35099983,0,0.333333,1,12.000000,8.000000,0.000000,1.000000,1.000000,1.000000,392195.308087,816.000000,2.000000
315791.29101563,234929.73583984,24.36499977,0,0.333333,1,12.000000,8.000000,0.000000,1.000000,1.000000,1.000000,392195.308087,833.000000,2.000000
315791.37902832,234929.82812500,24.35799980,0,0.333333,1,12.000000,8.000000,0.000000,1.000000,1.000000,1.000000,392195.308087,928.000000,2.000000
315791.46496582,234929.91699219,24.36100006,0,0.333333,1,12.000000,9.000000,0.000000,1.000000,1.000000,1.000000,392195.308087,709.000000,2.000000
315791.55798340,234930.01318359,24.34900093,0,0.333333,1,12.000000,9.000000,0.000000,1.000000,1.000000,1.000000,392195.308087,600.000000,2.000000
315791.65197754,234930.11083984,24.36199951,0,0.333333,1,12.000000,9.000000,0.000000,1.000000,1.000000,1.000000,392195.308087,784.000000,2.000000
315791.75000000,234930.21289063,24.35199928,0,0.333333,1,12.000000,9.000000,0.000000,1.000000,1.000000,1.000000,392195.308087,754.000000,2.000000
315791.83398438,234930.29980469,24.35000038,0,0.333333,1,12.000000,9.000000,0.000000,1.000000,1.000000,1.000000,392195.308209,816.000000,2.000000
315791.93701172,234930.40576172,24.33600044,0,0.333333,1,12.000000,9.000000,0.000000,1.000000,1.000000,1.000000,392195.308209,784.000000,2.000000
315792.01904297,234930.49218750,24.35700035,0,0.333333,1,12.000000,9.000000,0.000000,1.000000,1.000000,1.000000,392195.308209,643.000000,2.000000
315792.10803223,234930.58593750,24.36300087,0,0.333333,1,12.000000,9.000000,0.000000,1.000000,1.000000,1.000000,392195.308209,692.000000,2.000000
315792.19299316,234930.67382813,24.36400032,0,0.333333,1,12.000000,9.000000,0.000000,1.000000,1.000000,1.000000,392195.308209,769.000000,2.000000
315792.29394531,234930.77880859,24.36899948,0,0.333333,1,12.000000,9.000000,0.000000,1.000000,1.000000,1.000000,392195.308209,800.000000,2.000000
315792.38903809,234930.87695313,24.36599922,0,0.333333,1,12.000000,9.000000,0.000000,1.000000,2.000000,1.000000,392195.308209,91.000000,4.000000
315790.44201660,234928.61718750,24.35300064,0,0.333333,1,12.000000,8.000000,0.000000,1.000000,2.000000,1.000000,392195.298687,203.000000,4.000000
315790.53601074,234928.71484375,24.36000061,0,0.333333,1,12.000000,8.000000,0.000000,1.000000,1.000000,1.000000,392195.298687,591.000000,2.000000
315790.62597656,234928.80810547,24.34900093,0,0.333333,1,12.000000,8.000000,0.000000,1.000000,1.000000,1.000000,392195.298687,677.000000,2.000000
315790.71899414,234928.90478516,24.35099983,0,0.333333,1,12.000000,8.000000,0.000000,1.000000,1.000000,1.000000,392195.298687,907.000000,2.000000
315790.80700684,234928.99609375,24.35899925,0,0.333333,1,12.000000,8.000000,0.000000,1.000000,1.000000,1.000000,392195.298687,975.000000,2.000000
315790.89404297,234929.08691406,24.36300087,0,0.333333,1,12.000000,8.000000,0.000000,1.000000,1.000000,1.000000,392195.298687,701.000000,2.000000
315790.98498535,234929.18115234,24.35300064,0,0.333333,1,12.000000,8.000000,0.000000,1.000000,1.000000,1.000000,392195.298687,769.000000,2.000000
315791.07995605,234929.27978516,24.35199928,0,0.333333,1,12.000000,8.000000,0.000000,1.000000,1.000000,1.000000,392195.298809,816.000000,2.000000
315791.17602539,234929.38085938,24.36199951,0,0.333333,1,12.000000,8.000000,0.000000,1.000000,1.000000,1.000000,392195.298809,540.000000,2.000000
315791.26196289,234929.47021484,24.35199928,0,0.333333,1,12.000000,8.000000,0.000000,1.000000,1.000000,1.000000,392195.298809,525.000000,2.000000
315791.36303711,234929.57421875,24.34000015,0,0.333333,1,12.000000,8.000000,0.000000,1.000000,1.000000,1.000000,392195.298809,650.000000,2.000000
315791.44494629,234929.66113281,24.35700035,0,0.333333,1,12.000000,8.000000,0.000000,1.000000,1.000000,1.000000,392195.298809,887.000000,2.000000
315791.53601074,234929.75488281,24.35000038,0,0.333333,1,12.000000,8.000000,0.000000,1.000000,1.000000,1.000000,392195.298809,887.000000,2.000000
315791.62304688,234929.84521484,24.34499931,0,0.333333,1,12.000000,9.000000,0.000000,1.000000,1.000000,1.000000,392195.298809,769.000000,2.000000
315791.71997070,234929.94677734,24.36400032,0,0.333333,1,12.000000,9.000000,0.000000,1.000000,1.000000,1.000000,392195.298809,686.000000,2.000000
315791.81799316,234930.04687500,24.34600067,0,0.333333,1,12.000000,9.000000,0.000000,1.000000,1.000000,1.000000,392195.298809,800.000000,2.000000
315790.02001953,234928.51611328,24.36000061,0,0.333333,1,12.000000,8.000000,0.000000,1.000000,1.000000,1.000000,392195.317486,436.000000,2.000000
315790.10705566,234928.60595703,24.35000038,0,0.333333,1,12.000000,8.000000,0.000000,1.000000,1.000000,1.000000,392195.317486,887.000000,2.000000
315790.19396973,234928.69580078,24.35400009,0,0.333333,1,12.000000,8.000000,0.000000,1.000000,1.000000,1.000000,392195.317486,662.000000,2.000000
315790.28405762,234928.79003906,24.35499954,0,0.333333,1,12.000000,8.000000,0.000000,1.000000,1.000000,1.000000,392195.317486,646.000000,2.000000
315790.38403320,234928.89306641,24.33399963,0,0.333333,1,12.000000,8.000000,0.000000,1.000000,1.000000,1.000000,392195.317486,617.000000,2.000000
315790.47802734,234928.99121094,24.34199905,0,0.333333,1,12.000000,8.000000,0.000000,1.000000,1.000000,1.000000,392195.317486,769.000000,2.000000
315790.56201172,234929.07812500,24.35499954,0,0.333333,1,12.000000,8.000000,0.000000,1.000000,1.000000,1.000000,392195.317486,701.000000,2.000000
315790.66198730,234929.18212891,24.34499931,0,0.333333,1,12.000000,8.000000,0.000000,1.000000,1.000000,1.000000,392195.317486,975.000000,2.000000
315790.74902344,234929.27197266,24.33799934,0,0.333333,1,12.000000,8.000000,0.000000,1.000000,1.000000,1.000000,392195.317486,800.000000,2.000000
315790.83605957,234929.36279297,24.35000038,0,0.333333,1,12.000000,8.000000,0.000000,1.000000,1.000000,1.000000,392195.317486,613.000000,2.000000
315790.92395020,234929.45410156,24.34300041,0,0.333333,1,12.000000,8.000000,0.000000,1.000000,1.000000,1.000000,392195.317486,833.000000,2.000000
315791.02197266,234929.55712891,24.34300041,0,0.333333,1,12.000000,8.000000,0.000000,1.000000,1.000000,1.000000,392195.317486,681.000000,2.000000
315791.11694336,234929.65478516,24.35000038,0,0.333333,1,12.000000,8.000000,0.000000,1.000000,1.000000,1.000000,392195.317486,833.000000,2.000000
315791.20495605,234929.74707031,24.33799934,0,0.333333,1,12.000000,8.000000,0.000000,1.000000,1.000000,1.000000,392195.317486,754.000000,2.000000
315791.29895020,234929.84521484,24.35099983,0,0.333333,1,12.000000,8.000000,0.000000,1.000000,1.000000,1.000000,392195.317486,716.000000,2.000000
315791.38793945,234929.93701172,24.34499931,0,0.333333,1,12.000000,9.000000,0.000000,1.000000,1.000000,1.000000,392195.317486,799.000000,2.000000
315791.47900391,234930.03076172,24.33300018,0,0.333333,1,12.000000,9.000000,0.000000,1.000000,1.000000,1.000000,392195.317486,754.000000,2.000000
315791.56494141,234930.12109375,24.35099983,0,0.333333,1,12.000000,9.000000,0.000000,1.000000,1.000000,1.000000,392195.317486,677.000000,2.000000
315791.66198730,234930.22119141,24.33699989,0,0.333333,1,12.000000,9.000000,0.000000,1.000000,1.000000,1.000000,392195.317486,627.000000,2.000000
315791.75805664,234930.32080078,24.35799980,0,0.333333,1,12.000000,9.000000,0.000000,1.000000,1.000000,1.000000,392195.317486,626.000000,2.000000
315791.84301758,234930.41015625,24.36599922,0,0.333333,1,12.000000,9.000000,0.000000,1.000000,1.000000,1.000000,392195.317486,832.000000,2.000000
315791.93896484,234930.51123047,24.37700081,0,0.333333,1,12.000000,9.000000,0.000000,1.000000,1.000000,1.000000,392195.317486,816.000000,2.000000
315792.02600098,234930.60009766,24.36100006,0,0.333333,1,12.000000,9.000000,0.000000,1.000000,1.000000,1.000000,392195.317486,646.000000,2.000000
315792.11499023,234930.69384766,24.37199974,0,0.333333,1,12.000000,9.000000,0.000000,1.000000,1.000000,1.000000,392195.317486,688.000000,2.000000
315792.20495605,234930.78710938,24.35499954,0,0.333333,1,12.000000,9.000000,0.000000,1.000000,1.000000,1.000000,392195.317486,769.000000,2.000000
315792.30102539,234930.88720703,24.36499977,0,0.333333,1,12.000000,9.000000,0.000000,1.000000,2.000000,1.000000,392195.317486,459.000000,4.000000
315790.10095215,234928.49902344,24.35099983,0,0.333333,1,12.000000,8.000000,0.000000,1.000000,2.000000,1.000000,392195.308087,23.000000,4.000000
315790.18798828,234928.58886719,24.35300064,0,0.333333,1,12.000000,8.000000,0.000000,1.000000,1.000000,1.000000,392195.308087,503.000000,2.000000
315790.27697754,234928.68212891,24.34600067,0,0.333333,1,12.000000,8.000000,0.000000,1.000000,1.000000,1.000000,392195.308087,556.000000,2.000000
315789.73095703,234928.44189453,24.35700035,0,0.333333,1,12.000000,8.000000,0.000000,1.000000,2.000000,1.000000,392195.326886,394.000000,4.000000
315789.83105469,234928.54492188,24.35000038,0,0.333333,1,12.000000,8.000000,0.000000,1.000000,1.000000,1.000000,392195.326886,951.000000,2.000000
315789.91003418,234928.62792969,24.36100006,0,0.333333,1,12.000000,8.000000,0.000000,1.000000,1.000000,1.000000,392195.326886,685.000000,2.000000
315790.01196289,234928.73388672,24.34799957,0,0.333333,1,12.000000,8.000000,0.000000,1.000000,1.000000,1.000000,392195.326886,614.000000,2.000000
315790.09899902,234928.82324219,24.34600067,0,0.333333,1,12.000000,8.000000,0.000000,1.000000,1.000000,1.000000,392195.326886,645.000000,2.000000
315790.18798828,234928.91699219,24.35799980,0,0.333333,1,12.000000,8.000000,0.000000,1.000000,1.000000,1.000000,392195.326886,632.000000,2.000000
315790.27404785,234929.00585938,24.35300064,0,0.333333,1,12.000000,8.000000,0.000000,1.000000,1.000000,1.000000,392195.326886,644.000000,2.000000
315790.37194824,234929.10791016,24.35600090,0,0.333333,1,12.000000,8.000000,0.000000,1.000000,1.000000,1.000000,392195.326886,636.000000,2.000000
315790.46704102,234929.20605469,24.35499954,0,0.333333,1,12.000000,8.000000,0.000000,1.000000,1.000000,1.000000,392195.326886,754.000000,2.000000
315790.55798340,234929.29980469,24.34000015,0,0.333333,1,12.000000,8.000000,0.000000,1.000000,1.000000,1.000000,392195.326886,647.000000,2.000000
315790.64599609,234929.39306641,24.37400055,0,0.333333,1,12.000000,8.000000,0.000000,1.000000,1.000000,1.000000,392195.326886,667.000000,2.000000
315790.73803711,234929.48779297,24.36100006,0,0.333333,1,12.000000,8.000000,0.000000,1.000000,1.000000,1.000000,392195.326886,712.000000,2.000000
315790.82604980,234929.57910156,24.34700012,0,0.333333,1,12.000000,8.000000,0.000000,1.000000,1.000000,1.000000,392195.326886,850.000000,2.000000
315790.91601563,234929.67285156,24.36300087,0,0.333333,1,12.000000,8.000000,0.000000,1.000000,1.000000,1.000000,392195.326886,637.000000,2.000000
315791.00805664,234929.76904297,24.36800003,0,0.333333,1,12.000000,8.000000,0.000000,1.000000,1.000000,1.000000,392195.326886,590.000000,2.000000
315791.10803223,234929.87207031,24.35799980,0,0.333333,1,12.000000,8.000000,0.000000,1.000000,1.000000,1.000000,392195.326886,550.000000,2.000000
315791.19201660,234929.95996094,24.36599922,0,0.333333,1,12.000000,8.000000,0.000000,1.000000,1.000000,1.000000,392195.326886,542.000000,2.000000
315791.29296875,234930.06494141,24.36000061,0,0.333333,1,12.000000,9.000000,0.000000,1.000000,1.000000,1.000000,392195.326886,689.000000,2.000000
315791.37500000,234930.14990234,24.36100006,0,0.333333,1,12.000000,9.000000,0.000000,1.000000,1.000000,1.000000,392195.326886,626.000000,2.000000
315791.46704102,234930.24511719,24.35799980,0,0.333333,1,12.000000,9.000000,0.000000,1.000000,1.000000,1.000000,392195.326886,868.000000,2.000000
315791.55297852,234930.33398438,24.36800003,0,0.333333,1,12.000000,9.000000,0.000000,1.000000,1.000000,1.000000,392195.326886,769.000000,2.000000
315791.65502930,234930.43994141,24.35000038,0,0.333333,1,12.000000,9.000000,0.000000,1.000000,1.000000,1.000000,392195.326886,754.000000,2.000000
315791.74694824,234930.53613281,24.35899925,0,0.333333,1,12.000000,9.000000,0.000000,1.000000,1.000000,1.000000,392195.326886,887.000000,2.000000
315791.83605957,234930.62792969,24.36000061,0,0.333333,1,12.000000,9.000000,0.000000,1.000000,1.000000,1.000000,392195.326886,703.000000,2.000000
315791.93298340,234930.72900391,24.36000061,0,0.333333,1,12.000000,9.000000,0.000000,1.000000,1.000000,1.000000,392195.326886,754.000000,2.000000
315792.02197266,234930.82080078,24.35499954,0,0.333333,1,12.000000,9.000000,0.000000,1.000000,1.000000,1.000000,392195.326886,833.000000,2.000000
315792.10705566,234930.91015625,24.35799980,0,0.333333,1,12.000000,9.000000,0.000000,1.000000,1.000000,1.000000,392195.326886,672.000000,2.000000
315792.19494629,234931.00195313,24.37299919,0,0.333333,1,12.000000,9.000000,0.000000,1.000000,1.000000,1.000000,392195.326886,671.000000,2.000000
315792.29199219,234931.10205078,24.37000084,0,0.333333,1,12.000000,9.000000,0.000000,1.000000,2.000000,1.000000,392195.326886,493.000000,4.000000
315789.55798340,234928.35693359,24.33600044,0,0.333333,1,12.000000,8.000000,0.000000,1.000000,2.000000,1.000000,392195.336163,42.000000,4.000000
315789.64294434,234928.44580078,24.35300064,0,0.333333,1,12.000000,8.000000,0.000000,1.000000,1.000000,1.000000,392195.336163,709.000000,2.000000
315789.74194336,234928.54882813,24.35899925,0,0.333333,1,12.000000,8.000000,0.000000,1.000000,1.000000,1.000000,392195.336163,705.000000,2.000000
315789.83801270,234928.64794922,24.34499931,0,0.333333,1,12.000000,8.000000,0.000000,1.000000,1.000000,1.000000,392195.336163,660.000000,2.000000
315789.92395020,234928.73681641,24.35199928,0,0.333333,1,12.000000,8.000000,0.000000,1.000000,1.000000,1.000000,392195.336163,816.000000,2.000000
315790.01904297,234928.83691406,24.35499954,0,0.333333,1,12.000000,8.000000,0.000000,1.000000,1.000000,1.000000,392195.336285,704.000000,2.000000
315790.10900879,234928.92919922,24.34900093,0,0.333333,1,12.000000,8.000000,0.000000,1.000000,1.000000,1.000000,392195.336285,667.000000,2.000000
315790.19702148,234929.02001953,24.34399986,0,0.333333,1,12.000000,8.000000,0.000000,1.000000,1.000000,1.000000,392195.336285,675.000000,2.000000
315790.28601074,234929.11279297,24.33399963,0,0.333333,1,12.000000,8.000000,0.000000,1.000000,1.000000,1.000000,392195.336285,640.000000,2.000000
315790.38000488,234929.21093750,24.35499954,0,0.333333,1,12.000000,8.000000,0.000000,1.000000,1.000000,1.000000,392195.336285,446.000000,2.000000
315790.47802734,234929.31201172,24.35000038,0,0.333333,1,12.000000,8.000000,0.000000,1.000000,1.000000,1.000000,392195.336285,677.000000,2.000000
315790.56604004,234929.40283203,24.34099960,0,0.333333,1,12.000000,8.000000,0.000000,1.000000,1.000000,1.000000,392195.336285,754.000000,2.000000
315790.66198730,234929.50390625,24.34799957,0,0.333333,1,12.000000,8.000000,0.000000,1.000000,1.000000,1.000000,392195.336285,692.000000,2.000000
315790.74902344,234929.59277344,24.32900047,0,0.333333,1,12.000000,8.000000,0.000000,1.000000,1.000000,1.000000,392195.336285,1027.000000,2.000000
315790.83605957,234929.68408203,24.36000061,0,0.333333,1,12.000000,8.000000,0.000000,1.000000,1.000000,1.000000,392195.336285,636.000000,2.000000
315790.92602539,234929.77685547,24.35300064,0,0.333333,1,12.000000,8.000000,0.000000,1.000000,1.000000,1.000000,392195.336285,887.000000,2.000000
315791.02099609,234929.87792969,24.36800003,0,0.333333,1,12.000000,8.000000,0.000000,1.000000,1.000000,1.000000,392195.336285,769.000000,2.000000
315791.11303711,234929.97314453,24.37700081,0,0.333333,1,12.000000,8.000000,0.000000,1.000000,1.000000,1.000000,392195.336285,581.000000,2.000000
315789.32800293,234928.33300781,24.34700012,0,0.333333,1,12.000000,8.000000,0.000000,1.000000,2.000000,1.000000,392195.345562,8.000000,4.000000
315789.41198730,234928.41992188,24.34099960,0,0.333333,1,12.000000,8.000000,0.000000,1.000000,1.000000,1.000000,392195.345562,907.000000,2.000000
315789.50097656,234928.51220703,24.34799957,0,0.333333,1,12.000000,8.000000,0.000000,1.000000,1.000000,1.000000,392195.345562,563.000000,2.000000
315789.58898926,234928.60400391,24.35499954,0,0.333333,1,12.000000,8.000000,0.000000,1.000000,1.000000,1.000000,392195.345562,604.000000,2.000000
315789.68298340,234928.70312500,24.37000084,0,0.333333,1,12.000000,8.000000,0.000000,1.000000,1.000000,1.000000,392195.345562,563.000000,2.000000
315789.78295898,234928.80517578,24.34000015,0,0.333333,1,12.000000,8.000000,0.000000,1.000000,1.000000,1.000000,392195.345562,887.000000,2.000000
315789.86694336,234928.89306641,24.35700035,0,0.333333,1,12.000000,8.000000,0.000000,1.000000,1.000000,1.000000,392195.345562,907.000000,2.000000
315789.96704102,234928.99609375,24.34000015,0,0.333333,1,12.000000,8.000000,0.000000,1.000000,1.000000,1.000000,392195.345562,671.000000,2.000000
315790.05700684,234929.08886719,24.33300018,0,0.333333,1,12.000000,8.000000,0.000000,1.000000,1.000000,1.000000,392195.345562,784.000000,2.000000
315791.20397949,234930.06591797,24.36199951,0,0.333333,1,12.000000,9.000000,0.000000,1.000000,1.000000,1.000000,392195.336285,552.000000,2.000000
315791.30200195,234930.16796875,24.36199951,0,0.333333,1,12.000000,9.000000,0.000000,1.000000,1.000000,1.000000,392195.336285,422.000000,2.000000
315791.38793945,234930.25781250,24.36700058,0,0.333333,1,12.000000,9.000000,0.000000,1.000000,1.000000,1.000000,392195.336285,306.000000,2.000000
315791.47497559,234930.34814453,24.35000038,0,0.333333,1,12.000000,9.000000,0.000000,1.000000,1.000000,1.000000,392195.336285,754.000000,2.000000
315791.56701660,234930.44287109,24.34700012,0,0.333333,1,12.000000,9.000000,0.000000,1.000000,1.000000,1.000000,392195.336285,784.000000,2.000000
315791.66394043,234930.54394531,24.35000038,0,0.333333,1,12.000000,9.000000,0.000000,1.000000,1.000000,1.000000,392195.336285,784.000000,2.000000
315791.76000977,234930.64404297,24.34700012,0,0.333333,1,12.000000,9.000000,0.000000,1.000000,1.000000,1.000000,392195.336285,833.000000,2.000000
315791.84399414,234930.73095703,24.35600090,0,0.333333,1,12.000000,9.000000,0.000000,1.000000,1.000000,1.000000,392195.336285,643.000000,2.000000
315791.94201660,234930.83300781,24.37000084,0,0.333333,1,12.000000,9.000000,0.000000,1.000000,1.000000,1.000000,392195.336285,609.000000,2.000000
315792.02795410,234930.92187500,24.36899948,0,0.333333,1,12.000000,9.000000,0.000000,1.000000,1.000000,1.000000,392195.336285,566.000000,2.000000
315792.11694336,234931.01513672,24.37100029,0,0.333333,1,12.000000,9.000000,0.000000,1.000000,1.000000,1.000000,392195.336285,692.000000,2.000000
315792.20300293,234931.10498047,24.37700081,0,0.333333,1,12.000000,9.000000,0.000000,1.000000,1.000000,1.000000,392195.336285,605.000000,2.000000
315792.30200195,234931.20800781,24.37700081,0,0.333333,1,12.000000,9.000000,0.000000,1.000000,2.000000,1.000000,392195.336285,26.000000,4.000000
315791.91198730,234931.15283203,24.37100029,0,0.333333,1,12.000000,9.000000,0.000000,1.000000,1.000000,1.000000,392195.355084,701.000000,2.000000
315792.00305176,234931.24707031,24.36000061,0,0.333333,1,12.000000,9.000000,0.000000,1.000000,1.000000,1.000000,392195.355084,631.000000,2.000000
315792.08898926,234931.33593750,24.36899948,0,0.333333,1,12.000000,9.000000,0.000000,1.000000,1.000000,1.000000,392195.355084,566.000000,2.000000
315792.17797852,234931.42919922,24.36599922,0,0.333333,1,12.000000,9.000000,0.000000,1.000000,2.000000,1.000000,392195.355084,471.000000,4.000000
315790.13793945,234929.17382813,24.35799980,0,0.333333,1,12.000000,8.000000,0.000000,1.000000,1.000000,1.000000,392195.345562,622.000000,2.000000
315790.22802734,234929.26708984,24.35199928,0,0.333333,1,12.000000,8.000000,0.000000,1.000000,1.000000,1.000000,392195.345562,369.000000,2.000000
315790.32604980,234929.36914063,24.35600090,0,0.333333,1,12.000000,8.000000,0.000000,1.000000,1.000000,1.000000,392195.345562,470.000000,2.000000
315790.42504883,234929.47216797,24.35000038,0,0.333333,1,12.000000,8.000000,0.000000,1.000000,1.000000,1.000000,392195.345562,657.000000,2.000000
315790.50695801,234929.55712891,24.35099983,0,0.333333,1,12.000000,8.000000,0.000000,1.000000,1.000000,1.000000,392195.345562,769.000000,2.000000
315790.60705566,234929.66015625,24.34000015,0,0.333333,1,12.000000,8.000000,0.000000,1.000000,1.000000,1.000000,392195.345562,784.000000,2.000000
315790.69201660,234929.74902344,24.35600090,0,0.333333,1,12.000000,8.000000,0.000000,1.000000,1.000000,1.000000,392195.345562,579.000000,2.000000
315790.78295898,234929.84423828,24.35700035,0,0.333333,1,12.000000,8.000000,0.000000,1.000000,1.000000,1.000000,392195.345684,520.000000,2.000000
315790.86694336,234929.93115234,24.35899925,0,0.333333,1,12.000000,8.000000,0.000000,1.000000,1.000000,1.000000,392195.345684,590.000000,2.000000
315790.96398926,234930.03222656,24.34900093,0,0.333333,1,12.000000,8.000000,0.000000,1.000000,1.000000,1.000000,392195.345684,599.000000,2.000000
315791.06201172,234930.13378906,24.36300087,0,0.333333,1,12.000000,9.000000,0.000000,1.000000,1.000000,1.000000,392195.345684,354.000000,2.000000
315791.14697266,234930.22216797,24.36199951,0,0.333333,1,12.000000,9.000000,0.000000,1.000000,1.000000,1.000000,392195.345684,162.000000,2.000000
315791.24304199,234930.32177734,24.37899971,0,0.333333,1,12.000000,9.000000,0.000000,1.000000,1.000000,1.000000,392195.345684,220.000000,2.000000
315791.32897949,234930.41113281,24.36300087,0,0.333333,1,12.000000,9.000000,0.000000,1.000000,1.000000,1.000000,392195.345684,156.000000,2.000000
315791.42199707,234930.50683594,24.36300087,0,0.333333,1,12.000000,9.000000,0.000000,1.000000,1.000000,1.000000,392195.345684,613.000000,2.000000
315791.50695801,234930.59619141,24.37199974,0,0.333333,1,12.000000,9.000000,0.000000,1.000000,1.000000,1.000000,392195.345684,1144.000000,2.000000
315791.60705566,234930.69921875,24.36300087,0,0.333333,1,12.000000,9.000000,0.000000,1.000000,1.000000,1.000000,392195.345684,642.000000,2.000000
315791.69897461,234930.79492188,24.36300087,0,0.333333,1,12.000000,9.000000,0.000000,1.000000,1.000000,1.000000,392195.345684,666.000000,2.000000
315791.79101563,234930.89013672,24.35799980,0,0.333333,1,12.000000,9.000000,0.000000,1.000000,1.000000,1.000000,392195.345684,661.000000,2.000000
315791.88793945,234930.99218750,24.36800003,0,0.333333,1,12.000000,9.000000,0.000000,1.000000,1.000000,1.000000,392195.345684,632.000000,2.000000
315791.97204590,234931.07910156,24.36000061,0,0.333333,1,12.000000,9.000000,0.000000,1.000000,1.000000,1.000000,392195.345684,665.000000,2.000000
315792.06201172,234931.17187500,24.36599922,0,0.333333,1,12.000000,9.000000,0.000000,1.000000,1.000000,1.000000,392195.345684,650.000000,2.000000
315792.14904785,234931.26318359,24.37500000,0,0.333333,1,12.000000,9.000000,0.000000,1.000000,1.000000,1.000000,392195.345684,545.000000,2.000000
315792.25000000,234931.36816406,24.37100029,0,0.333333,1,12.000000,9.000000,0.000000,1.000000,2.000000,1.000000,392195.345684,36.000000,4.000000
315791.02099609,234930.36621094,24.42000008,0,0.333333,1,12.000000,9.000000,0.000000,1.000000,1.000000,1.000000,392195.364361,144.000000,2.000000
315791.11901855,234930.46679688,24.38999939,0,0.333333,1,12.000000,9.000000,0.000000,1.000000,1.000000,1.000000,392195.364361,201.000000,2.000000
315791.20996094,234930.56005859,24.38500023,0,0.333333,1,12.000000,9.000000,0.000000,1.000000,1.000000,1.000000,392195.364361,223.000000,2.000000
315791.30395508,234930.65722656,24.36599922,0,0.333333,1,12.000000,9.000000,0.000000,1.000000,1.000000,1.000000,392195.364361,201.000000,2.000000
315791.39404297,234930.75097656,24.36700058,0,0.333333,1,12.000000,9.000000,0.000000,1.000000,1.000000,1.000000,392195.364361,657.000000,2.000000
315791.48498535,234930.84423828,24.34000015,0,0.333333,1,12.000000,9.000000,0.000000,1.000000,1.000000,1.000000,392195.364361,668.000000,2.000000
315791.57397461,234930.93798828,24.36700058,0,0.333333,1,12.000000,9.000000,0.000000,1.000000,1.000000,1.000000,392195.364361,693.000000,2.000000
315791.66601563,234931.03320313,24.36400032,0,0.333333,1,12.000000,9.000000,0.000000,1.000000,1.000000,1.000000,392195.364361,652.000000,2.000000
315791.76501465,234931.13623047,24.36800003,0,0.333333,1,12.000000,9.000000,0.000000,1.000000,1.000000,1.000000,392195.364361,647.000000,2.000000
315791.84899902,234931.22412109,24.38100052,0,0.333333,1,12.000000,9.000000,0.000000,1.000000,1.000000,1.000000,392195.364361,754.000000,2.000000
315791.94897461,234931.32812500,24.38500023,0,0.333333,1,12.000000,9.000000,0.000000,1.000000,1.000000,1.000000,392195.364361,622.000000,2.000000
315792.03503418,234931.41601563,24.36700058,0,0.333333,1,12.000000,9.000000,0.000000,1.000000,1.000000,1.000000,392195.364361,565.000000,2.000000
315792.12402344,234931.50781250,24.37299919,0,0.333333,1,12.000000,9.000000,0.000000,1.000000,1.000000,1.000000,392195.364361,535.000000,2.000000
315789.35205078,234928.49511719,24.34300041,0,0.333333,1,12.000000,8.000000,0.000000,1.000000,2.000000,1.000000,392195.354962,297.000000,4.000000
315789.43896484,234928.58593750,24.35700035,0,0.333333,1,12.000000,8.000000,0.000000,1.000000,1.000000,1.000000,392195.354962,582.000000,2.000000
315789.53002930,234928.67919922,24.32999992,0,0.333333,1,12.000000,8.000000,0.000000,1.000000,1.000000,1.000000,392195.354962,1027.000000,2.000000
315789.61596680,234928.76904297,24.34900093,0,0.333333,1,12.000000,8.000000,0.000000,1.000000,1.000000,1.000000,392195.354962,704.000000,2.000000
315789.71398926,234928.87011719,24.33900070,0,0.333333,1,12.000000,8.000000,0.000000,1.000000,1.000000,1.000000,392195.354962,850.000000,2.000000
315789.80798340,234928.96923828,24.35799980,0,0.333333,1,12.000000,8.000000,0.000000,1.000000,1.000000,1.000000,392195.354962,697.000000,2.000000
315789.89599609,234929.06005859,24.34600067,0,0.333333,1,12.000000,8.000000,0.000000,1.000000,1.000000,1.000000,392195.354962,692.000000,2.000000
315789.99401855,234929.16210938,24.33799934,0,0.333333,1,12.000000,8.000000,0.000000,1.000000,1.000000,1.000000,392195.354962,975.000000,2.000000
315790.07800293,234929.24902344,24.35600090,0,0.333333,1,12.000000,8.000000,0.000000,1.000000,1.000000,1.000000,392195.354962,530.000000,2.000000
315790.16699219,234929.34179688,24.35400009,0,0.333333,1,12.000000,8.000000,0.000000,1.000000,1.000000,1.000000,392195.354962,384.000000,2.000000
315790.25500488,234929.43310547,24.35199928,0,0.333333,1,12.000000,8.000000,0.000000,1.000000,1.000000,1.000000,392195.354962,497.000000,2.000000
315790.35400391,234929.53613281,24.34799957,0,0.333333,1,12.000000,8.000000,0.000000,1.000000,1.000000,1.000000,392195.354962,647.000000,2.000000
315790.44702148,234929.63183594,24.35499954,0,0.333333,1,12.000000,8.000000,0.000000,1.000000,1.000000,1.000000,392195.354962,561.000000,2.000000
315790.53601074,234929.72412109,24.35099983,0,0.333333,1,12.000000,8.000000,0.000000,1.000000,1.000000,1.000000,392195.354962,685.000000,2.000000
315790.63403320,234929.82617188,24.35000038,0,0.333333,1,12.000000,8.000000,0.000000,1.000000,1.000000,1.000000,392195.354962,672.000000,2.000000
315790.72302246,234929.91796875,24.33200073,0,0.333333,1,12.000000,8.000000,0.000000,1.000000,1.000000,1.000000,392195.354962,907.000000,2.000000
315790.80603027,234930.00488281,24.35300064,0,0.333333,1,12.000000,8.000000,0.000000,1.000000,1.000000,1.000000,392195.354962,440.000000,2.000000
315790.89599609,234930.09814453,24.36400032,0,0.333333,1,12.000000,8.000000,0.000000,1.000000,1.000000,1.000000,392195.354962,434.000000,2.000000
315790.99194336,234930.19921875,24.36700058,0,0.333333,1,12.000000,9.000000,0.000000,1.000000,1.000000,1.000000,392195.354962,217.000000,2.000000
315791.08703613,234930.29687500,24.38199997,0,0.333333,1,12.000000,9.000000,0.000000,1.000000,1.000000,1.000000,392195.354962,206.000000,2.000000
315791.17199707,234930.38476563,24.37199974,0,0.333333,1,12.000000,9.000000,0.000000,1.000000,1.000000,1.000000,392195.354962,180.000000,2.000000
315791.27294922,234930.49023438,24.36499977,0,0.333333,1,12.000000,9.000000,0.000000,1.000000,1.000000,1.000000,392195.354962,240.000000,2.000000
315791.36096191,234930.58007813,24.35499954,0,0.333333,1,12.000000,9.000000,0.000000,1.000000,1.000000,1.000000,392195.354962,552.000000,2.000000
315791.44799805,234930.67089844,24.36400032,0,0.333333,1,12.000000,9.000000,0.000000,1.000000,1.000000,1.000000,392195.354962,685.000000,2.000000
315791.53601074,234930.76220703,24.35600090,0,0.333333,1,12.000000,9.000000,0.000000,1.000000,1.000000,1.000000,392195.354962,887.000000,2.000000
315791.63598633,234930.86621094,24.35799980,0,0.333333,1,12.000000,9.000000,0.000000,1.000000,1.000000,1.000000,392195.355084,671.000000,2.000000
315791.72802734,234930.96191406,24.37999916,0,0.333333,1,12.000000,9.000000,0.000000,1.000000,1.000000,1.000000,392195.355084,681.000000,2.000000
315791.81604004,234931.05419922,24.36400032,0,0.333333,1,12.000000,9.000000,0.000000,1.000000,1.000000,1.000000,392195.355084,668.000000,2.000000
315790.56896973,234930.04003906,24.35700035,0,0.333333,1,12.000000,8.000000,0.000000,1.000000,1.000000,1.000000,392195.373761,508.000000,2.000000
315790.66394043,234930.13916016,24.36400032,0,0.333333,1,12.000000,8.000000,0.000000,1.000000,1.000000,1.000000,392195.373761,269.000000,2.000000
315790.75000000,234930.22900391,24.37500000,0,0.333333,1,12.000000,8.000000,0.000000,1.000000,1.000000,1.000000,392195.373761,266.000000,2.000000
315790.83801270,234930.31982422,24.38500023,0,0.333333,1,12.000000,9.000000,0.000000,1.000000,1.000000,1.000000,392195.373761,242.000000,2.000000
315790.92395020,234930.41113281,24.40500069,0,0.333333,1,12.000000,9.000000,0.000000,1.000000,1.000000,1.000000,392195.373761,169.000000,2.000000
315791.02099609,234930.51123047,24.39599991,0,0.333333,1,12.000000,9.000000,0.000000,1.000000,1.000000,1.000000,392195.373761,201.000000,2.000000
315791.11999512,234930.61279297,24.38299942,0,0.333333,1,12.000000,9.000000,0.000000,1.000000,1.000000,1.000000,392195.373761,258.000000,2.000000
315791.20800781,234930.70410156,24.36499977,0,0.333333,1,12.000000,9.000000,0.000000,1.000000,1.000000,1.000000,392195.373761,223.000000,2.000000
315791.30798340,234930.80712891,24.35400009,0,0.333333,1,12.000000,9.000000,0.000000,1.000000,1.000000,1.000000,392195.373761,688.000000,2.000000
315791.39196777,234930.89501953,24.35799980,0,0.333333,1,12.000000,9.000000,0.000000,1.000000,1.000000,1.000000,392195.373761,667.000000,2.000000
315791.48303223,234930.98779297,24.35799980,0,0.333333,1,12.000000,9.000000,0.000000,1.000000,1.000000,1.000000,392195.373761,800.000000,2.000000
315791.56994629,234931.07910156,24.36899948,0,0.333333,1,12.000000,9.000000,0.000000,1.000000,1.000000,1.000000,392195.373761,927.000000,2.000000
315791.67102051,234931.18310547,24.34900093,0,0.333333,1,12.000000,9.000000,0.000000,1.000000,1.000000,1.000000,392195.373761,617.000000,2.000000
315791.76196289,234931.27783203,24.36899948,0,0.333333,1,12.000000,9.000000,0.000000,1.000000,1.000000,1.000000,392195.373761,667.000000,2.000000
315791.84899902,234931.37011719,24.37899971,0,0.333333,1,12.000000,9.000000,0.000000,1.000000,1.000000,1.000000,392195.373761,656.000000,2.000000
315791.94799805,234931.47216797,24.36700058,0,0.333333,1,12.000000,9.000000,0.000000,1.000000,1.000000,1.000000,392195.373761,665.000000,2.000000
315792.03601074,234931.56298828,24.36499977,0,0.333333,1,12.000000,9.000000,0.000000,1.000000,1.000000,1.000000,392195.373761,709.000000,2.000000
315792.12304688,234931.65283203,24.35400009,0,0.333333,1,12.000000,9.000000,0.000000,1.000000,2.000000,1.000000,392195.373761,517.000000,4.000000
315789.29101563,234928.56787109,24.34799957,0,0.333333,1,12.000000,8.000000,0.000000,1.000000,2.000000,1.000000,392195.364361,31.000000,4.000000
315789.38598633,234928.66796875,24.36199951,0,0.333333,1,12.000000,8.000000,0.000000,1.000000,1.000000,1.000000,392195.364361,697.000000,2.000000
315789.47302246,234928.75585938,24.34900093,0,0.333333,1,12.000000,8.000000,0.000000,1.000000,1.000000,1.000000,392195.364361,784.000000,2.000000
315789.56298828,234928.85009766,24.34700012,0,0.333333,1,12.000000,8.000000,0.000000,1.000000,1.000000,1.000000,392195.364361,887.000000,2.000000
315789.65002441,234928.93994141,24.35099983,0,0.333333,1,12.000000,8.000000,0.000000,1.000000,1.000000,1.000000,392195.364361,800.000000,2.000000
315789.74804688,234929.04296875,24.35499954,0,0.333333,1,12.000000,8.000000,0.000000,1.000000,1.000000,1.000000,392195.364361,951.000000,2.000000
315789.84301758,234929.14013672,24.34199905,0,0.333333,1,12.000000,8.000000,0.000000,1.000000,1.000000,1.000000,392195.364361,951.000000,2.000000
315789.93103027,234929.23193359,24.35099983,0,0.333333,1,12.000000,8.000000,0.000000,1.000000,1.000000,1.000000,392195.364361,833.000000,2.000000
315790.02697754,234929.33203125,24.34799957,0,0.333333,1,12.000000,8.000000,0.000000,1.000000,1.000000,1.000000,392195.364361,604.000000,2.000000
315790.11499023,234929.42285156,24.34600067,0,0.333333,1,12.000000,8.000000,0.000000,1.000000,1.000000,1.000000,392195.364361,595.000000,2.000000
315790.19897461,234929.50976563,24.35499954,0,0.333333,1,12.000000,8.000000,0.000000,1.000000,1.000000,1.000000,392195.364361,573.000000,2.000000
315790.29101563,234929.60595703,24.35799980,0,0.333333,1,12.000000,8.000000,0.000000,1.000000,1.000000,1.000000,392195.364361,618.000000,2.000000
315790.38696289,234929.70605469,24.35700035,0,0.333333,1,12.000000,8.000000,0.000000,1.000000,1.000000,1.000000,392195.364361,697.000000,2.000000
315790.48498535,234929.80712891,24.35000038,0,0.333333,1,12.000000,8.000000,0.000000,1.000000,1.000000,1.000000,392195.364361,753.000000,2.000000
315790.56604004,234929.89208984,24.36199951,0,0.333333,1,12.000000,8.000000,0.000000,1.000000,1.000000,1.000000,392195.364361,622.000000,2.000000
315790.66894531,234929.99804688,24.34700012,0,0.333333,1,12.000000,8.000000,0.000000,1.000000,1.000000,1.000000,392195.364361,559.000000,2.000000
315790.75305176,234930.08496094,24.36300087,0,0.333333,1,12.000000,8.000000,0.000000,1.000000,1.000000,1.000000,392195.364361,222.000000,2.000000
315790.84301758,234930.17919922,24.36899948,0,0.333333,1,12.000000,8.000000,0.000000,1.000000,1.000000,1.000000,392195.364361,140.000000,2.000000
315790.92504883,234930.26416016,24.37999916,0,0.333333,1,12.000000,9.000000,0.000000,1.000000,1.000000,1.000000,392195.364361,148.000000,2.000000
315790.04602051,234929.77685547,24.34600067,0,0.333333,1,12.000000,8.000000,0.000000,1.000000,1.000000,1.000000,392195.383160,519.000000,2.000000
315790.13403320,234929.86914063,24.36499977,0,0.333333,1,12.000000,8.000000,0.000000,1.000000,1.000000,1.000000,392195.383160,529.000000,2.000000
315790.22302246,234929.96093750,24.36300087,0,0.333333,1,12.000000,8.000000,0.000000,1.000000,1.000000,1.000000,392195.383160,608.000000,2.000000
315790.32202148,234930.06396484,24.36599922,0,0.333333,1,12.000000,8.000000,0.000000,1.000000,1.000000,1.000000,392195.383160,513.000000,2.000000
315790.41394043,234930.15917969,24.36300087,0,0.333333,1,12.000000,8.000000,0.000000,1.000000,1.000000,1.000000,392195.383160,587.000000,2.000000
315790.50402832,234930.25195313,24.34799957,0,0.333333,1,12.000000,8.000000,0.000000,1.000000,1.000000,1.000000,392195.383160,654.000000,2.000000
315790.59899902,234930.35107422,24.37100029,0,0.333333,1,12.000000,8.000000,0.000000,1.000000,1.000000,1.000000,392195.383160,346.000000,2.000000
315790.68798828,234930.44384766,24.36700058,0,0.333333,1,12.000000,9.000000,0.000000,1.000000,1.000000,1.000000,392195.383160,183.000000,2.000000
315790.77001953,234930.52978516,24.38599968,0,0.333333,1,12.000000,9.000000,0.000000,1.000000,1.000000,1.000000,392195.383160,201.000000,2.000000
315790.86401367,234930.62597656,24.37700081,0,0.333333,1,12.000000,9.000000,0.000000,1.000000,1.000000,1.000000,392195.383160,217.000000,2.000000
315790.95996094,234930.72607422,24.37000084,0,0.333333,1,12.000000,9.000000,0.000000,1.000000,1.000000,1.000000,392195.383160,267.000000,2.000000
315791.06103516,234930.83007813,24.35000038,0,0.333333,1,12.000000,9.000000,0.000000,1.000000,1.000000,1.000000,392195.383160,592.000000,2.000000
315791.14404297,234930.91503906,24.35400009,0,0.333333,1,12.000000,9.000000,0.000000,1.000000,1.000000,1.000000,392195.383160,640.000000,2.000000
315791.24194336,234931.01708984,24.36100006,0,0.333333,1,12.000000,9.000000,0.000000,1.000000,1.000000,1.000000,392195.383160,689.000000,2.000000
315791.32897949,234931.10791016,24.35400009,0,0.333333,1,12.000000,9.000000,0.000000,1.000000,1.000000,1.000000,392195.383160,784.000000,2.000000
315791.41894531,234931.20117188,24.36199951,0,0.333333,1,12.000000,9.000000,0.000000,1.000000,1.000000,1.000000,392195.383160,907.000000,2.000000
315791.50500488,234931.29003906,24.35499954,0,0.333333,1,12.000000,9.000000,0.000000,1.000000,1.000000,1.000000,392195.383160,636.000000,2.000000
315791.60302734,234931.39208984,24.37199974,0,0.333333,1,12.000000,9.000000,0.000000,1.000000,1.000000,1.000000,392195.383160,577.000000,2.000000
315791.69799805,234931.49023438,24.37400055,0,0.333333,1,12.000000,9.000000,0.000000,1.000000,1.000000,1.000000,392195.383160,647.000000,2.000000
