//X,Y,Z,Rf,Gf,Bf,Point Source ID,Scan Angle Rank,Flightline Edge,Scan Direction,Number of Returns,Return Number,Time,Intensity,Classification
315790.23901367,234925.64794922,15.98799992,0,1,1,12.000000,8.000000,0.000000,1.000000,1.000000,1.000000,392195.167462,405.000000,4.000000
315790.29699707,234925.72216797,16.34700012,0,1,1,12.000000,8.000000,0.000000,1.000000,1.000000,1.000000,392195.167462,310.000000,4.000000
315790.25500488,234925.72119141,17.61899948,0,1,1,12.000000,8.000000,0.000000,1.000000,2.000000,1.000000,392195.167462,73.000000,4.000000
315790.42395020,234925.84423828,16.06699944,0,1,1,12.000000,8.000000,0.000000,1.000000,2.000000,2.000000,392195.167462,492.000000,4.000000
315790.21496582,234925.85791016,16.00699997,0,1,1,12.000000,8.000000,0.000000,1.000000,1.000000,1.000000,392195.176861,460.000000,2.000000
315790.30895996,234925.95703125,16.03300095,0,1,1,12.000000,8.000000,0.000000,1.000000,1.000000,1.000000,392195.176861,373.000000,2.000000
315790.18798828,234925.89990234,18.06100082,0,1,1,12.000000,8.000000,0.000000,1.000000,2.000000,1.000000,392195.176861,21.000000,4.000000
315790.11206055,234925.85693359,16.07299995,0,1,1,12.000000,8.000000,0.000000,1.000000,2.000000,1.000000,392195.186139,21.000000,4.000000
315790.20605469,234925.95410156,16.02400017,0,1,1,12.000000,8.000000,0.000000,1.000000,1.000000,1.000000,392195.186139,582.000000,2.000000
315790.30603027,234926.05810547,16.01700020,0,1,1,12.000000,8.000000,0.000000,1.000000,1.000000,1.000000,392195.186139,617.000000,2.000000
315790.18701172,234926.00292969,17.98500061,0,1,1,12.000000,8.000000,0.000000,1.000000,2.000000,1.000000,392195.186139,92.000000,4.000000
315790.09204102,234926.12890625,16.03400040,0,1,1,12.000000,8.000000,0.000000,1.000000,2.000000,1.000000,392195.195538,214.000000,4.000000
315790.19299316,234926.23486328,16.03400040,0,1,1,12.000000,8.000000,0.000000,1.000000,1.000000,1.000000,392195.195538,487.000000,4.000000
315790.11401367,234926.29589844,16.02000046,0,1,1,12.000000,8.000000,0.000000,1.000000,1.000000,1.000000,392195.204937,599.000000,2.000000
315790.20605469,234926.39208984,16.04100037,0,1,1,12.000000,8.000000,0.000000,1.000000,1.000000,1.000000,392195.204937,417.000000,2.000000
315790.08203125,234926.33496094,18.06800079,0,1,1,12.000000,8.000000,0.000000,1.000000,2.000000,1.000000,392195.204937,40.000000,4.000000
315790.01098633,234926.35400391,16.02700043,0,1,1,12.000000,8.000000,0.000000,1.000000,2.000000,1.000000,392195.214337,95.000000,4.000000
315790.10205078,234926.44824219,16.02700043,0,1,1,12.000000,8.000000,0.000000,1.000000,1.000000,1.000000,392195.214337,416.000000,4.000000
315790.20104980,234926.55078125,16.04100037,0,1,1,12.000000,8.000000,0.000000,1.000000,1.000000,1.000000,392195.214337,368.000000,4.000000
315789.99194336,234926.52001953,16.02000046,0,1,1,12.000000,8.000000,0.000000,1.000000,2.000000,1.000000,392195.223736,163.000000,4.000000
315790.07800293,234926.60986328,16.02899933,0,1,1,12.000000,8.000000,0.000000,1.000000,1.000000,1.000000,392195.223736,374.000000,2.000000
315789.92700195,234926.68896484,16.01700020,0,1,1,12.000000,8.000000,0.000000,1.000000,2.000000,1.000000,392195.233014,116.000000,4.000000
315790.01696777,234926.78417969,16.02799988,0,1,1,12.000000,8.000000,0.000000,1.000000,1.000000,1.000000,392195.233014,373.000000,2.000000
315789.98596191,234926.82519531,18.09000015,0,1,1,12.000000,8.000000,0.000000,1.000000,2.000000,1.000000,392195.233014,219.000000,4.000000
315789.94799805,234926.81982422,16.00499916,0,1,1,12.000000,8.000000,0.000000,1.000000,1.000000,1.000000,392195.242413,472.000000,2.000000
315790.03503418,234926.91113281,16.03199959,0,1,1,12.000000,8.000000,0.000000,1.000000,1.000000,1.000000,392195.242413,315.000000,2.000000
315789.83996582,234926.91113281,16.06599998,0,1,1,12.000000,8.000000,0.000000,1.000000,2.000000,1.000000,392195.251812,36.000000,4.000000
315789.93298340,234927.00488281,16.02099991,0,1,1,12.000000,8.000000,0.000000,1.000000,1.000000,1.000000,392195.251812,433.000000,2.000000
315790.02404785,234927.10107422,16.03000069,0,1,1,12.000000,8.000000,0.000000,1.000000,1.000000,1.000000,392195.251812,459.000000,2.000000
315789.90197754,234927.04394531,17.97599983,0,1,1,12.000000,8.000000,0.000000,1.000000,2.000000,1.000000,392195.251812,118.000000,4.000000
315789.89294434,234927.04882813,16.04700089,0,1,1,12.000000,8.000000,0.000000,1.000000,1.000000,1.000000,392195.261212,275.000000,2.000000
315789.98095703,234927.14111328,16.02799988,0,1,1,12.000000,8.000000,0.000000,1.000000,1.000000,1.000000,392195.261212,550.000000,2.000000
315789.79699707,234927.20019531,16.00000000,0,1,1,12.000000,8.000000,0.000000,1.000000,2.000000,1.000000,392195.270611,150.000000,4.000000
315789.88500977,234927.29296875,16.02199936,0,1,1,12.000000,8.000000,0.000000,1.000000,1.000000,1.000000,392195.270611,428.000000,2.000000
315789.96997070,234927.38183594,16.05200005,0,1,1,12.000000,8.000000,0.000000,1.000000,1.000000,1.000000,392195.270611,565.000000,2.000000
315789.84399414,234927.32519531,18.07699966,0,1,1,12.000000,8.000000,0.000000,1.000000,2.000000,1.000000,392195.270611,240.000000,4.000000
315789.80700684,234927.37988281,16.02099991,0,1,1,12.000000,8.000000,0.000000,1.000000,1.000000,1.000000,392195.279889,383.000000,2.000000
315789.89404297,234927.47119141,16.03000069,0,1,1,12.000000,8.000000,0.000000,1.000000,1.000000,1.000000,392195.279889,440.000000,2.000000
315789.74401855,234927.43115234,16.03000069,0,1,1,12.000000,8.000000,0.000000,1.000000,2.000000,1.000000,392195.289288,205.000000,4.000000
315789.83605957,234927.52685547,16.02799988,0,1,1,12.000000,8.000000,0.000000,1.000000,1.000000,1.000000,392195.289288,400.000000,4.000000
315789.78796387,234927.55078125,18.05299950,0,1,1,12.000000,8.000000,0.000000,1.000000,2.000000,1.000000,392195.289288,269.000000,4.000000
315789.74804688,234927.58105469,16.00099945,0,1,1,12.000000,8.000000,0.000000,1.000000,1.000000,1.000000,392195.298687,373.000000,2.000000
315789.83203125,234927.66992188,16.01799965,0,1,1,12.000000,8.000000,0.000000,1.000000,1.000000,1.000000,392195.298687,454.000000,2.000000
315789.64501953,234927.88281250,17.98900032,0,1,1,12.000000,8.000000,0.000000,1.000000,2.000000,1.000000,392195.317486,33.000000,4.000000
315789.67395020,234927.74316406,16.03800011,0,1,1,12.000000,8.000000,0.000000,1.000000,1.000000,1.000000,392195.308087,345.000000,2.000000
315789.76599121,234927.83789063,16.03100014,0,1,1,12.000000,8.000000,0.000000,1.000000,1.000000,1.000000,392195.308087,328.000000,2.000000
315789.70996094,234927.85888672,18.11899948,0,1,1,12.000000,8.000000,0.000000,1.000000,2.000000,1.000000,392195.308087,275.000000,4.000000
315789.58398438,234927.97216797,16.01300049,0,1,1,12.000000,8.000000,0.000000,1.000000,2.000000,1.000000,392195.326764,76.000000,4.000000
315789.68200684,234928.07324219,16.02300072,0,1,1,12.000000,8.000000,0.000000,1.000000,1.000000,1.000000,392195.326764,341.000000,2.000000
315789.63696289,234928.10205078,18.00699997,0,1,1,12.000000,8.000000,0.000000,1.000000,2.000000,1.000000,392195.326764,159.000000,4.000000
315789.58703613,234927.75000000,16.06100082,0,1,1,12.000000,8.000000,0.000000,1.000000,2.000000,1.000000,392195.317486,20.000000,4.000000
315789.68798828,234927.85302734,16.01899910,0,1,1,12.000000,8.000000,0.000000,1.000000,1.000000,1.000000,392195.317486,373.000000,2.000000
315789.77905273,234927.94824219,16.02400017,0,1,1,12.000000,8.000000,0.000000,1.000000,1.000000,1.000000,392195.317486,325.000000,2.000000
315789.59997559,234928.08007813,16.00099945,0,1,1,12.000000,8.000000,0.000000,1.000000,1.000000,1.000000,392195.336163,383.000000,2.000000
315789.69201660,234928.17578125,16.03400040,0,1,1,12.000000,8.000000,0.000000,1.000000,1.000000,1.000000,392195.336163,374.000000,2.000000
315789.55102539,234928.10888672,18.07200050,0,1,1,12.000000,8.000000,0.000000,1.000000,2.000000,1.000000,392195.336163,7.000000,4.000000
315789.54602051,234928.23583984,15.98400021,0,1,1,12.000000,8.000000,0.000000,1.000000,1.000000,1.000000,392195.345562,373.000000,4.000000
315789.64099121,234928.33593750,16.02499962,0,1,1,12.000000,8.000000,0.000000,1.000000,1.000000,1.000000,392195.345562,393.000000,4.000000
315789.48498535,234928.30908203,16.00799942,0,1,1,12.000000,8.000000,0.000000,1.000000,2.000000,1.000000,392195.354962,101.000000,4.000000
315789.57299805,234928.40087891,16.02099991,0,1,1,12.000000,8.000000,0.000000,1.000000,1.000000,1.000000,392195.354962,415.000000,4.000000
315789.53405762,234928.43798828,18.00200081,0,1,1,12.000000,8.000000,0.000000,1.000000,2.000000,1.000000,392195.354962,171.000000,4.000000
315789.67700195,234928.53808594,16.76300049,0,1,1,12.000000,8.000000,0.000000,1.000000,2.000000,2.000000,392195.354962,63.000000,4.000000
315789.52099609,234928.47998047,16.02400017,0,1,1,12.000000,8.000000,0.000000,1.000000,1.000000,1.000000,392195.364361,379.000000,4.000000
315789.54101563,234928.52587891,16.65200043,0,1,1,12.000000,8.000000,0.000000,1.000000,1.000000,1.000000,392195.364361,329.000000,4.000000
315789.53002930,234928.54980469,17.57299995,0,1,1,12.000000,8.000000,0.000000,1.000000,1.000000,1.000000,392195.364361,328.000000,4.000000
315789.42199707,234928.52099609,16.04500008,0,1,1,12.000000,8.000000,0.000000,1.000000,2.000000,1.000000,392195.373639,52.000000,4.000000
315789.49401855,234928.60498047,16.28300095,0,1,1,12.000000,8.000000,0.000000,1.000000,1.000000,1.000000,392195.373639,144.000000,4.000000
315789.41198730,234928.58007813,17.77300072,0,1,1,12.000000,8.000000,0.000000,1.000000,1.000000,1.000000,392195.373639,51.000000,4.000000
315790.23498535,234925.68896484,16.06399918,0,1,1,13.000000,23.000000,0.000000,1.000000,1.000000,1.000000,392485.999127,512.000000,4.000000
315790.25695801,234925.72314453,16.33499908,0,1,1,13.000000,23.000000,0.000000,1.000000,1.000000,1.000000,392485.999127,336.000000,4.000000
315790.25195313,234925.72412109,16.67300034,0,1,1,13.000000,23.000000,0.000000,1.000000,1.000000,1.000000,392485.999127,266.000000,4.000000
315790.24194336,234925.72021484,17.04999924,0,1,1,13.000000,23.000000,0.000000,1.000000,1.000000,1.000000,392485.999127,253.000000,4.000000
315790.23999023,234925.72705078,17.39699936,0,1,1,13.000000,23.000000,0.000000,1.000000,2.000000,1.000000,392485.999127,238.000000,4.000000
315790.23596191,234925.73095703,17.78300095,0,1,1,13.000000,23.000000,0.000000,1.000000,1.000000,1.000000,392485.999127,229.000000,4.000000
315790.15405273,234925.90185547,15.99199963,0,1,1,13.000000,23.000000,0.000000,1.000000,1.000000,1.000000,392486.008526,303.000000,2.000000
315790.23803711,234926.00488281,16.05400085,0,1,1,13.000000,23.000000,0.000000,1.000000,1.000000,1.000000,392486.008526,276.000000,2.000000
315790.32800293,234926.11376953,16.07799911,0,1,1,13.000000,23.000000,0.000000,1.000000,1.000000,1.000000,392486.008526,330.000000,2.000000
315790.35900879,234926.17187500,16.98299980,0,1,1,13.000000,23.000000,0.000000,1.000000,1.000000,1.000000,392486.008526,185.000000,2.000000
315790.18395996,234925.98193359,17.94799995,0,1,1,13.000000,24.000000,0.000000,1.000000,1.000000,1.000000,392486.008526,198.000000,2.000000
315790.08398438,234926.14599609,16.01300049,0,1,1,13.000000,23.000000,0.000000,1.000000,1.000000,1.000000,392486.017804,328.000000,2.000000
315790.18005371,234926.26220703,16.03499985,0,1,1,13.000000,23.000000,0.000000,1.000000,1.000000,1.000000,392486.017804,428.000000,2.000000
315790.26403809,234926.36523438,16.07200050,0,1,1,13.000000,23.000000,0.000000,1.000000,1.000000,1.000000,392486.017804,345.000000,2.000000
315790.21801758,234926.32812500,16.89999962,0,1,1,13.000000,23.000000,0.000000,1.000000,2.000000,1.000000,392486.017804,15.000000,4.000000
315790.30603027,234926.43505859,16.95400047,0,1,1,13.000000,23.000000,0.000000,1.000000,3.000000,1.000000,392486.017926,60.000000,4.000000
315790.10302734,234926.21386719,18.00200081,0,1,1,13.000000,24.000000,0.000000,1.000000,1.000000,1.000000,392486.017926,341.000000,4.000000
315790.06896973,234926.43408203,16.03899956,0,1,1,13.000000,23.000000,0.000000,1.000000,1.000000,1.000000,392486.027203,411.000000,4.000000
315790.16601563,234926.55078125,16.05100060,0,1,1,13.000000,23.000000,0.000000,1.000000,1.000000,1.000000,392486.027203,384.000000,4.000000
315790.22900391,234926.62988281,16.16699982,0,1,1,13.000000,23.000000,0.000000,1.000000,1.000000,1.000000,392486.027203,155.000000,4.000000
315790.26000977,234926.67285156,16.37800026,0,1,1,13.000000,23.000000,0.000000,1.000000,1.000000,1.000000,392486.027203,155.000000,4.000000
315790.19104004,234926.60205078,16.96400070,0,1,1,13.000000,24.000000,0.000000,1.000000,1.000000,1.000000,392486.027203,288.000000,2.000000
315789.98706055,234926.37890625,18.01899910,0,1,1,13.000000,24.000000,0.000000,1.000000,3.000000,1.000000,392486.027203,13.000000,4.000000
315790.19299316,234926.61181641,17.30599976,0,1,1,13.000000,24.000000,0.000000,1.000000,3.000000,2.000000,392486.027203,124.000000,4.000000
315789.97497559,234926.69921875,16.03499985,0,1,1,13.000000,23.000000,0.000000,1.000000,1.000000,1.000000,392486.036602,444.000000,2.000000
315790.07299805,234926.81787109,16.04899979,0,1,1,13.000000,23.000000,0.000000,1.000000,1.000000,1.000000,392486.036602,384.000000,2.000000
315790.21801758,234927.01220703,16.89399910,0,1,1,13.000000,24.000000,0.000000,1.000000,2.000000,1.000000,392486.036602,29.000000,4.000000
315789.98706055,234926.75781250,18.04299927,0,1,1,13.000000,24.000000,0.000000,1.000000,1.000000,1.000000,392486.036602,349.000000,4.000000
315789.91003418,234926.95117188,16.02199936,0,1,1,13.000000,23.000000,0.000000,1.000000,1.000000,1.000000,392486.046002,354.000000,2.000000
315790.00903320,234927.07177734,16.03800011,0,1,1,13.000000,23.000000,0.000000,1.000000,1.000000,1.000000,392486.046002,293.000000,2.000000
315789.84204102,234926.91308594,17.96299934,0,1,1,13.000000,24.000000,0.000000,1.000000,3.000000,1.000000,392486.046002,13.000000,4.000000
315790.12805176,234927.23681641,16.97100067,0,1,1,13.000000,24.000000,0.000000,1.000000,3.000000,2.000000,392486.046002,25.000000,4.000000
315789.90100098,234926.98779297,18.11199951,0,1,1,13.000000,24.000000,0.000000,1.000000,1.000000,1.000000,392486.046002,369.000000,4.000000
315789.81201172,234927.16601563,15.98999977,0,1,1,13.000000,23.000000,0.000000,1.000000,1.000000,1.000000,392486.055401,289.000000,2.000000
315789.89501953,234927.26708984,16.04100037,0,1,1,13.000000,23.000000,0.000000,1.000000,1.000000,1.000000,392486.055401,354.000000,2.000000
315789.98596191,234927.37890625,16.07299995,0,1,1,13.000000,24.000000,0.000000,1.000000,1.000000,1.000000,392486.055401,384.000000,2.000000
315789.83898926,234927.24218750,17.92600060,0,1,1,13.000000,24.000000,0.000000,1.000000,3.000000,1.000000,392486.055401,195.000000,4.000000
315789.76794434,234927.35205078,16.02099991,0,1,1,13.000000,23.000000,0.000000,1.000000,1.000000,1.000000,392486.064679,299.000000,2.000000
315789.85705566,234927.45996094,16.03300095,0,1,1,13.000000,24.000000,0.000000,1.000000,1.000000,1.000000,392486.064679,333.000000,2.000000
315789.99902344,234927.65185547,16.88299942,0,1,1,13.000000,24.000000,0.000000,1.000000,3.000000,1.000000,392486.064801,32.000000,4.000000
315789.78698730,234927.41796875,17.98200035,0,1,1,13.000000,24.000000,0.000000,1.000000,1.000000,1.000000,392486.064801,283.000000,4.000000
315789.73999023,234927.73583984,16.03199959,0,1,1,13.000000,24.000000,0.000000,1.000000,1.000000,1.000000,392486.074078,306.000000,2.000000
315789.83703613,234927.85400391,16.05599976,0,1,1,13.000000,24.000000,0.000000,1.000000,1.000000,1.000000,392486.074078,314.000000,2.000000
315789.81701660,234927.85302734,17.11100006,0,1,1,13.000000,24.000000,0.000000,1.000000,1.000000,1.000000,392486.074078,225.000000,4.000000
315789.76000977,234927.79687500,17.66699982,0,1,1,13.000000,24.000000,0.000000,1.000000,1.000000,1.000000,392486.074078,225.000000,4.000000
315789.63696289,234927.85791016,16.01700020,0,1,1,13.000000,24.000000,0.000000,1.000000,1.000000,1.000000,392486.083477,394.000000,2.000000
315789.72705078,234927.96679688,16.03800011,0,1,1,13.000000,24.000000,0.000000,1.000000,1.000000,1.000000,392486.083477,368.000000,2.000000
315789.74401855,234928.00878906,16.99200058,0,1,1,13.000000,24.000000,0.000000,1.000000,2.000000,1.000000,392486.083477,94.000000,4.000000
315789.75000000,234928.02294922,17.30100060,0,1,1,13.000000,24.000000,0.000000,1.000000,1.000000,1.000000,392486.083477,182.000000,2.000000
315789.64196777,234927.90820313,18.02199936,0,1,1,13.000000,24.000000,0.000000,1.000000,1.000000,1.000000,392486.083477,300.000000,2.000000
315789.62304688,234928.13476563,16.03300095,0,1,1,13.000000,24.000000,0.000000,1.000000,1.000000,1.000000,392486.092877,289.000000,2.000000
315789.71398926,234928.24707031,16.04299927,0,1,1,13.000000,24.000000,0.000000,1.000000,1.000000,1.000000,392486.092877,283.000000,2.000000
315789.71801758,234928.27294922,17.04700089,0,1,1,13.000000,24.000000,0.000000,1.000000,1.000000,1.000000,392486.092877,192.000000,2.000000
315789.71203613,234928.27294922,17.39200020,0,1,1,13.000000,24.000000,0.000000,1.000000,1.000000,1.000000,392486.092877,210.000000,2.000000
315789.60595703,234928.16113281,18.12100029,0,1,1,13.000000,24.000000,0.000000,1.000000,1.000000,1.000000,392486.092877,363.000000,2.000000
315789.57604980,234928.36376953,16.03700066,0,1,1,13.000000,24.000000,0.000000,1.000000,1.000000,1.000000,392486.102276,285.000000,4.000000
315789.70996094,234928.53222656,16.25499916,0,1,1,13.000000,24.000000,0.000000,1.000000,1.000000,1.000000,392486.102276,192.000000,4.000000
315789.69897461,234928.52587891,16.62800026,0,1,1,13.000000,24.000000,0.000000,1.000000,1.000000,1.000000,392486.102276,182.000000,2.000000
315789.66101074,234928.49121094,17.09600067,0,1,1,13.000000,24.000000,0.000000,1.000000,1.000000,1.000000,392486.102276,259.000000,2.000000
315789.64697266,234928.48193359,17.45599937,0,1,1,13.000000,24.000000,0.000000,1.000000,1.000000,1.000000,392486.102276,241.000000,4.000000
315789.54101563,234928.36914063,18.17499924,0,1,1,13.000000,24.000000,0.000000,1.000000,1.000000,1.000000,392486.102276,349.000000,2.000000
315789.46105957,234928.61279297,16.04899979,0,1,1,13.000000,24.000000,0.000000,1.000000,1.000000,1.000000,392486.111554,354.000000,4.000000
315789.46594238,234928.62695313,16.36899948,0,1,1,13.000000,24.000000,0.000000,1.000000,1.000000,1.000000,392486.111554,318.000000,4.000000
315789.46398926,234928.63183594,16.71999931,0,1,1,13.000000,24.000000,0.000000,1.000000,1.000000,1.000000,392486.111676,313.000000,4.000000
315789.46704102,234928.64306641,17.05500031,0,1,1,13.000000,24.000000,0.000000,1.000000,1.000000,1.000000,392486.111676,325.000000,4.000000
315789.46398926,234928.64697266,17.38699913,0,1,1,13.000000,24.000000,0.000000,1.000000,1.000000,1.000000,392486.111676,300.000000,4.000000
315789.45202637,234928.64013672,17.75699997,0,1,1,13.000000,24.000000,0.000000,1.000000,1.000000,1.000000,392486.111676,250.000000,4.000000
315789.45898438,234928.65478516,18.07299995,0,1,1,13.000000,24.000000,0.000000,1.000000,1.000000,1.000000,392486.111676,318.000000,4.000000
315789.87500000,234927.60107422,16.04199982,0,1,1,21.000000,-13.000000,0.000000,1.000000,2.000000,2.000000,394522.613263,263.000000,2.000000
315789.80505371,234927.73876953,16.04400063,0,1,1,21.000000,-13.000000,0.000000,1.000000,1.000000,1.000000,394522.613263,282.000000,2.000000
315789.67395020,234927.99707031,16.03899956,0,1,1,21.000000,-13.000000,0.000000,1.000000,1.000000,1.000000,394522.613263,328.000000,2.000000
315789.61096191,234928.12109375,16.03499985,0,1,1,21.000000,-13.000000,0.000000,1.000000,1.000000,1.000000,394522.613507,313.000000,2.000000
315789.33996582,234928.60498047,17.79199982,0,1,1,21.000000,-13.000000,0.000000,1.000000,4.000000,1.000000,394522.613507,22.000000,4.000000
315789.54699707,234928.24707031,16.02400017,0,1,1,21.000000,-13.000000,0.000000,1.000000,4.000000,2.000000,394522.613507,130.000000,4.000000
315789.48901367,234928.36181641,15.99600029,0,1,1,21.000000,-13.000000,0.000000,1.000000,3.000000,1.000000,394522.613507,10.000000,4.000000
315789.36694336,234928.58886719,16.44799995,0,1,1,21.000000,-13.000000,0.000000,1.000000,2.000000,1.000000,394522.613507,22.000000,4.000000
315789.34497070,234928.64208984,16.05500031,0,1,1,21.000000,-13.000000,0.000000,1.000000,2.000000,1.000000,394522.613507,24.000000,4.000000
315789.50402832,234928.52490234,17.89999962,0,1,1,21.000000,-13.000000,0.000000,1.000000,3.000000,2.000000,394522.603985,55.000000,4.000000
315789.71997070,234928.14892578,16.04999924,0,1,1,21.000000,-13.000000,0.000000,1.000000,3.000000,3.000000,394522.603985,27.000000,4.000000
315789.44897461,234928.63476563,17.81299973,0,1,1,21.000000,-13.000000,0.000000,1.000000,1.000000,1.000000,394522.603985,52.000000,4.000000
315789.43505859,234928.67382813,17.40699959,0,1,1,21.000000,-13.000000,0.000000,1.000000,2.000000,1.000000,394522.603985,41.000000,4.000000
315789.51293945,234928.53808594,16.73399925,0,1,1,21.000000,-13.000000,0.000000,1.000000,2.000000,2.000000,394522.603985,86.000000,4.000000
315789.49401855,234928.58691406,16.30900002,0,1,1,21.000000,-13.000000,0.000000,1.000000,1.000000,1.000000,394522.603985,130.000000,4.000000
315789.63793945,234928.01123047,18.04899979,0,1,1,21.000000,-13.000000,0.000000,1.000000,2.000000,1.000000,394522.613263,11.000000,4.000000
315790.33203125,234926.22900391,16.09399986,0,1,1,21.000000,-13.000000,0.000000,1.000000,2.000000,2.000000,394522.622784,8.000000,4.000000
315790.27294922,234926.34619141,16.07600021,0,1,1,21.000000,-13.000000,0.000000,1.000000,3.000000,3.000000,394522.622784,46.000000,2.000000
315790.21105957,234926.46679688,16.05200005,0,1,1,21.000000,-13.000000,0.000000,1.000000,3.000000,3.000000,394522.622784,140.000000,2.000000
315789.89697266,234927.02783203,18.10799980,0,1,1,21.000000,-13.000000,0.000000,1.000000,3.000000,2.000000,394522.622784,26.000000,4.000000
315790.14294434,234926.60107422,16.04700089,0,1,1,21.000000,-13.000000,0.000000,1.000000,3.000000,3.000000,394522.622784,251.000000,2.000000
315790.07202148,234926.74023438,16.04700089,0,1,1,21.000000,-13.000000,0.000000,1.000000,1.000000,1.000000,394522.622784,481.000000,2.000000
315790.01196289,234926.85791016,16.04500008,0,1,1,21.000000,-13.000000,0.000000,1.000000,1.000000,1.000000,394522.622784,338.000000,2.000000
315789.94396973,234926.99316406,16.03300095,0,1,1,21.000000,-13.000000,0.000000,1.000000,1.000000,1.000000,394522.622784,465.000000,2.000000
315789.87902832,234927.12011719,16.04000092,0,1,1,21.000000,-13.000000,0.000000,1.000000,1.000000,1.000000,394522.622784,310.000000,2.000000
315789.81494141,234927.24609375,16.03000069,0,1,1,21.000000,-13.000000,0.000000,1.000000,2.000000,1.000000,394522.622784,310.000000,4.000000
315789.75695801,234927.36279297,16.01899910,0,1,1,21.000000,-13.000000,0.000000,1.000000,3.000000,1.000000,394522.622784,141.000000,4.000000
315789.68701172,234927.49804688,16.01499939,0,1,1,21.000000,-13.000000,0.000000,1.000000,3.000000,1.000000,394522.622784,32.000000,4.000000
315790.40502930,234925.80615234,16.08200073,0,1,1,21.000000,-14.000000,0.000000,1.000000,3.000000,3.000000,394522.632061,48.000000,2.000000
315790.27697754,234926.06005859,16.05800056,0,1,1,21.000000,-13.000000,0.000000,1.000000,3.000000,3.000000,394522.632061,287.000000,2.000000
315790.21496582,234926.18212891,16.04999924,0,1,1,21.000000,-13.000000,0.000000,1.000000,1.000000,1.000000,394522.632061,448.000000,2.000000
315790.15002441,234926.30908203,16.04899979,0,1,1,21.000000,-13.000000,0.000000,1.000000,1.000000,1.000000,394522.632061,389.000000,2.000000
315790.08996582,234926.42919922,16.04000092,0,1,1,21.000000,-13.000000,0.000000,1.000000,1.000000,1.000000,394522.632061,455.000000,2.000000
315790.01904297,234926.56884766,16.03800011,0,1,1,21.000000,-13.000000,0.000000,1.000000,1.000000,1.000000,394522.632061,359.000000,2.000000
315789.95300293,234926.69921875,16.03599930,0,1,1,21.000000,-13.000000,0.000000,1.000000,2.000000,1.000000,394522.632061,347.000000,4.000000
315789.88903809,234926.82324219,16.02199936,0,1,1,21.000000,-13.000000,0.000000,1.000000,3.000000,1.000000,394522.632061,96.000000,4.000000
315789.82495117,234926.95117188,16.00200081,0,1,1,21.000000,-13.000000,0.000000,1.000000,3.000000,1.000000,394522.632061,20.000000,4.000000
315790.28698730,234925.64208984,16.05299950,0,1,1,21.000000,-14.000000,0.000000,1.000000,1.000000,1.000000,394522.641583,384.000000,2.000000
315790.22094727,234925.77197266,16.04199982,0,1,1,21.000000,-13.000000,0.000000,1.000000,2.000000,1.000000,394522.641583,311.000000,4.000000
315790.15600586,234925.89990234,16.04199982,0,1,1,21.000000,-13.000000,0.000000,1.000000,2.000000,1.000000,394522.641583,61.000000,4.000000
315790.09594727,234926.01904297,15.98799992,0,1,1,21.000000,-13.000000,0.000000,1.000000,2.000000,1.000000,394522.641583,8.000000,4.000000
315789.54895020,234928.58691406,17.02499962,0,1,1,22.000000,5.000000,0.000000,1.000000,2.000000,2.000000,394839.600811,33.000000,4.000000
315789.47900391,234928.64697266,17.69400024,0,1,1,22.000000,5.000000,0.000000,1.000000,3.000000,3.000000,394839.600811,30.000000,4.000000
315789.72302246,234928.19580078,16.04800034,0,1,1,22.000000,5.000000,0.000000,1.000000,3.000000,3.000000,394839.610089,13.000000,4.000000
315789.65502930,234928.33691406,16.02599907,0,1,1,22.000000,5.000000,0.000000,1.000000,3.000000,3.000000,394839.610089,50.000000,4.000000
315789.59399414,234928.45800781,16.02700043,0,1,1,22.000000,5.000000,0.000000,1.000000,2.000000,2.000000,394839.610089,152.000000,4.000000
315789.52795410,234928.54589844,16.41099930,0,1,1,22.000000,5.000000,0.000000,1.000000,2.000000,2.000000,394839.610089,150.000000,4.000000
315789.46899414,234928.69580078,16.14800072,0,1,1,22.000000,5.000000,0.000000,1.000000,2.000000,2.000000,394839.610089,82.000000,4.000000
315789.38793945,234928.62011719,18.10899925,0,1,1,22.000000,5.000000,0.000000,1.000000,2.000000,2.000000,394839.610089,22.000000,4.000000
315789.84399414,234927.79492188,16.04700089,0,1,1,22.000000,5.000000,0.000000,1.000000,3.000000,3.000000,394839.619366,8.000000,4.000000
315789.78503418,234927.91894531,16.01700020,0,1,1,22.000000,5.000000,0.000000,1.000000,3.000000,3.000000,394839.619366,39.000000,2.000000
315789.71704102,234928.05517578,16.02499962,0,1,1,22.000000,5.000000,0.000000,1.000000,2.000000,2.000000,394839.619366,146.000000,2.000000
315789.65100098,234928.18896484,16.02400017,0,1,1,22.000000,5.000000,0.000000,1.000000,2.000000,2.000000,394839.619366,286.000000,2.000000
315789.58605957,234928.31884766,16.02400017,0,1,1,22.000000,5.000000,0.000000,1.000000,2.000000,2.000000,394839.619366,286.000000,2.000000
315789.52294922,234928.44677734,16.02700043,0,1,1,22.000000,5.000000,0.000000,1.000000,1.000000,1.000000,394839.619366,355.000000,2.000000
315789.45703125,234928.56689453,16.12599945,0,1,1,22.000000,5.000000,0.000000,1.000000,2.000000,1.000000,394839.619366,103.000000,4.000000
315789.38793945,234928.56494141,17.28000069,0,1,1,22.000000,5.000000,0.000000,1.000000,2.000000,1.000000,394839.619366,27.000000,4.000000
315789.32202148,234928.63818359,17.77899933,0,1,1,22.000000,5.000000,0.000000,1.000000,2.000000,1.000000,394839.619366,12.000000,4.000000
315789.89196777,234927.53710938,16.03199959,0,1,1,22.000000,5.000000,0.000000,1.000000,2.000000,2.000000,394839.628643,129.000000,2.000000
315789.82702637,234927.66894531,16.02700043,0,1,1,22.000000,5.000000,0.000000,1.000000,2.000000,2.000000,394839.628643,239.000000,2.000000
315789.76293945,234927.79882813,16.02700043,0,1,1,22.000000,5.000000,0.000000,1.000000,2.000000,2.000000,394839.628643,294.000000,2.000000
315789.70202637,234927.92285156,16.02300072,0,1,1,22.000000,5.000000,0.000000,1.000000,2.000000,1.000000,394839.628643,321.000000,4.000000
315789.64001465,234928.04980469,16.01600075,0,1,1,22.000000,5.000000,0.000000,1.000000,2.000000,1.000000,394839.628643,260.000000,4.000000
315789.57495117,234928.18115234,16.01300049,0,1,1,22.000000,5.000000,0.000000,1.000000,2.000000,1.000000,394839.628643,106.000000,4.000000
315789.50695801,234928.31982422,15.99800014,0,1,1,22.000000,5.000000,0.000000,1.000000,3.000000,1.000000,394839.628643,21.000000,4.000000
315790.04199219,234926.91406250,16.02400017,0,1,1,22.000000,5.000000,0.000000,1.000000,3.000000,3.000000,394839.637921,26.000000,2.000000
315789.97998047,234927.04101563,16.02000046,0,1,1,22.000000,5.000000,0.000000,1.000000,2.000000,2.000000,394839.638409,103.000000,2.000000
315789.91796875,234927.16601563,16.03000069,0,1,1,22.000000,5.000000,0.000000,1.000000,2.000000,2.000000,394839.638409,300.000000,2.000000
315789.84997559,234927.30322266,16.02899933,0,1,1,22.000000,5.000000,0.000000,1.000000,2.000000,2.000000,394839.638409,521.000000,2.000000
315789.78601074,234927.43310547,16.02400017,0,1,1,22.000000,5.000000,0.000000,1.000000,2.000000,1.000000,394839.638409,360.000000,4.000000
315789.72302246,234927.56201172,16.01700020,0,1,1,22.000000,5.000000,0.000000,1.000000,2.000000,1.000000,394839.638409,315.000000,4.000000
315789.65698242,234927.69677734,16.00600052,0,1,1,22.000000,5.000000,0.000000,1.000000,2.000000,1.000000,394839.638409,150.000000,4.000000
315789.59094238,234927.82812500,16.01799965,0,1,1,22.000000,5.000000,0.000000,1.000000,2.000000,1.000000,394839.638409,32.000000,4.000000
315790.06103516,234926.76806641,16.02400017,0,1,1,22.000000,5.000000,0.000000,1.000000,2.000000,2.000000,394839.647686,131.000000,2.000000
315789.99804688,234926.89599609,16.02599907,0,1,1,22.000000,5.000000,0.000000,1.000000,2.000000,2.000000,394839.647686,337.000000,2.000000
315789.93298340,234927.02685547,16.02799988,0,1,1,22.000000,5.000000,0.000000,1.000000,2.000000,2.000000,394839.647686,360.000000,2.000000
315789.87194824,234927.14990234,16.02599907,0,1,1,22.000000,5.000000,0.000000,1.000000,2.000000,1.000000,394839.647686,364.000000,4.000000
315789.80798340,234927.27978516,16.01600075,0,1,1,22.000000,5.000000,0.000000,1.000000,2.000000,1.000000,394839.647686,343.000000,4.000000
315789.74597168,234927.41015625,16.00300026,0,1,1,22.000000,5.000000,0.000000,1.000000,2.000000,1.000000,394839.647686,135.000000,4.000000
315789.67700195,234927.54882813,15.99800014,0,1,1,22.000000,5.000000,0.000000,1.000000,2.000000,1.000000,394839.647686,24.000000,4.000000
315790.29504395,234926.08789063,16.01300049,0,1,1,22.000000,5.000000,0.000000,1.000000,3.000000,3.000000,394839.656964,33.000000,2.000000
315790.23205566,234926.21289063,16.03000069,0,1,1,22.000000,5.000000,0.000000,1.000000,2.000000,2.000000,394839.656964,135.000000,2.000000
315790.17102051,234926.33593750,16.03700066,0,1,1,22.000000,5.000000,0.000000,1.000000,2.000000,2.000000,394839.656964,304.000000,2.000000
315790.10803223,234926.46582031,16.02599907,0,1,1,22.000000,5.000000,0.000000,1.000000,2.000000,2.000000,394839.656964,308.000000,2.000000
315790.04296875,234926.59814453,16.02300072,0,1,1,22.000000,5.000000,0.000000,1.000000,2.000000,1.000000,394839.656964,374.000000,4.000000
315789.97595215,234926.73388672,16.02000046,0,1,1,22.000000,5.000000,0.000000,1.000000,2.000000,1.000000,394839.656964,310.000000,4.000000
315789.91503906,234926.85986328,16.00699997,0,1,1,22.000000,5.000000,0.000000,1.000000,2.000000,1.000000,394839.656964,140.000000,4.000000
315789.84802246,234926.99609375,16.00600052,0,1,1,22.000000,5.000000,0.000000,1.000000,2.000000,1.000000,394839.656964,30.000000,4.000000
315789.78601074,234927.12597656,15.97999954,0,1,1,22.000000,5.000000,0.000000,1.000000,2.000000,1.000000,394839.656964,8.000000,4.000000
315790.25903320,234926.04980469,16.02700043,0,1,1,22.000000,5.000000,0.000000,1.000000,2.000000,2.000000,394839.666241,147.000000,4.000000
315790.18896484,234926.18896484,16.03599930,0,1,1,22.000000,5.000000,0.000000,1.000000,2.000000,2.000000,394839.666241,273.000000,4.000000
315790.12902832,234926.31201172,16.03300095,0,1,1,22.000000,5.000000,0.000000,1.000000,3.000000,2.000000,394839.666241,501.000000,4.000000
315790.06701660,234926.43896484,16.03100014,0,1,1,22.000000,5.000000,0.000000,1.000000,2.000000,1.000000,394839.666241,398.000000,4.000000
315790.00598145,234926.56494141,16.01700020,0,1,1,22.000000,5.000000,0.000000,1.000000,2.000000,1.000000,394839.666241,236.000000,4.000000
315789.93896484,234926.70214844,16.01899910,0,1,1,22.000000,5.000000,0.000000,1.000000,2.000000,1.000000,394839.666241,183.000000,4.000000
315789.87500000,234926.83007813,16.03499985,0,1,1,22.000000,5.000000,0.000000,1.000000,2.000000,1.000000,394839.666241,32.000000,4.000000
315789.81103516,234926.96093750,16.02899933,0,1,1,22.000000,5.000000,0.000000,1.000000,2.000000,1.000000,394839.666241,10.000000,4.000000
315790.29296875,234925.63476563,16.03199959,0,1,1,22.000000,5.000000,0.000000,1.000000,2.000000,1.000000,394839.675518,359.000000,4.000000
315790.22998047,234925.76416016,16.02000046,0,1,1,22.000000,5.000000,0.000000,1.000000,2.000000,1.000000,394839.675518,258.000000,4.000000
315790.16296387,234925.89990234,16.02199936,0,1,1,22.000000,5.000000,0.000000,1.000000,2.000000,1.000000,394839.675518,99.000000,4.000000
315790.10095215,234926.02392578,16.03000069,0,1,1,22.000000,5.000000,0.000000,1.000000,2.000000,1.000000,394839.675518,21.000000,4.000000
315790.17700195,234925.60791016,16.04199982,0,1,1,22.000000,5.000000,0.000000,1.000000,2.000000,1.000000,394839.684796,11.000000,4.000000
