//X,Y,Z,Rf,Gf,Bf,Point Source ID,Scan Angle Rank,Flightline Edge,Scan Direction,Number of Returns,Return Number,Time,Intensity,Classification
315800.06298828,234948.39794922,13.99499989,0,1,1,10.000000,-20.000000,0.000000,1.000000,1.000000,1.000000,391589.372662,324.000000,4.000000
315800.06604004,234948.41210938,13.64700031,0,1,1,10.000000,-20.000000,0.000000,1.000000,1.000000,1.000000,391589.372662,277.000000,4.000000
315800.06701660,234948.42480469,13.27400017,0,1,1,10.000000,-20.000000,0.000000,1.000000,1.000000,1.000000,391589.372662,296.000000,4.000000
315800.06799316,234948.43701172,12.92899990,0,1,1,10.000000,-20.000000,0.000000,1.000000,1.000000,1.000000,391589.372662,368.000000,4.000000
315800.07604980,234948.45703125,12.55799961,0,1,1,10.000000,-20.000000,0.000000,1.000000,1.000000,1.000000,391589.372662,364.000000,4.000000
315799.70397949,234949.00292969,13.25300026,0,1,1,10.000000,-20.000000,0.000000,1.000000,2.000000,1.000000,391589.400799,99.000000,4.000000
315799.72399902,234949.03417969,12.96199989,0,1,1,10.000000,-20.000000,0.000000,1.000000,2.000000,1.000000,391589.400799,246.000000,4.000000
315800.08300781,234948.74804688,14.42300034,0,1,1,10.000000,-20.000000,0.000000,1.000000,1.000000,1.000000,391589.382061,373.000000,4.000000
315800.02099609,234948.69824219,13.81400013,0,1,1,10.000000,-20.000000,0.000000,1.000000,1.000000,1.000000,391589.382061,427.000000,4.000000
315800.00903320,234948.69580078,13.40699959,0,1,1,10.000000,-20.000000,0.000000,1.000000,1.000000,1.000000,391589.382061,473.000000,4.000000
315799.99694824,234948.69580078,12.98900032,0,1,1,10.000000,-20.000000,0.000000,1.000000,1.000000,1.000000,391589.382061,497.000000,4.000000
315799.97705078,234948.68701172,12.52799988,0,1,1,10.000000,-20.000000,0.000000,1.000000,1.000000,1.000000,391589.382061,467.000000,4.000000
315799.66003418,234949.25976563,13.17899990,0,1,1,10.000000,-20.000000,0.000000,1.000000,1.000000,1.000000,391589.410199,336.000000,4.000000
315799.63903809,234949.25097656,12.71899986,0,1,1,10.000000,-20.000000,0.000000,1.000000,2.000000,1.000000,391589.410199,123.000000,4.000000
315799.79296875,234948.67675781,13.27499962,0,1,1,10.000000,-20.000000,0.000000,1.000000,1.000000,1.000000,391589.391400,283.000000,4.000000
315799.78002930,234948.67480469,12.86999989,0,1,1,10.000000,-20.000000,0.000000,1.000000,1.000000,1.000000,391589.391400,325.000000,4.000000
315799.76196289,234948.66796875,12.41899967,0,1,1,10.000000,-20.000000,0.000000,1.000000,1.000000,1.000000,391589.391400,267.000000,4.000000
315799.98303223,234949.57080078,14.79599953,0,1,1,10.000000,-20.000000,0.000000,1.000000,3.000000,1.000000,391589.410138,44.000000,4.000000
315799.63305664,234949.22119141,13.46100044,0,1,1,10.000000,-20.000000,0.000000,1.000000,3.000000,2.000000,391589.410138,115.000000,4.000000
315799.61499023,234949.45703125,13.56400013,0,1,1,10.000000,-20.000000,0.000000,1.000000,3.000000,2.000000,391589.419537,107.000000,4.000000
315799.61206055,234949.46484375,13.19699955,0,1,1,10.000000,-20.000000,0.000000,1.000000,2.000000,1.000000,391589.419537,321.000000,4.000000
315799.59899902,234949.46484375,12.74199963,0,1,1,10.000000,-20.000000,0.000000,1.000000,2.000000,1.000000,391589.419537,162.000000,4.000000
315799.54394531,234950.24511719,14.70199966,0,1,1,10.000000,-20.000000,0.000000,1.000000,1.000000,1.000000,391589.447674,286.000000,4.000000
315799.73400879,234949.85205078,14.09700012,0,1,1,10.000000,-20.000000,0.000000,1.000000,1.000000,1.000000,391589.428936,606.000000,4.000000
315799.73999023,234949.87109375,13.71800041,0,1,1,10.000000,-20.000000,0.000000,1.000000,1.000000,1.000000,391589.428936,455.000000,4.000000
315799.73596191,234949.87890625,13.30599976,0,1,1,10.000000,-20.000000,0.000000,1.000000,1.000000,1.000000,391589.428936,513.000000,4.000000
315799.73596191,234949.89111328,12.93700027,0,1,1,10.000000,-20.000000,0.000000,1.000000,1.000000,1.000000,391589.428936,503.000000,4.000000
315799.73095703,234949.89892578,12.52999973,0,1,1,10.000000,-20.000000,0.000000,1.000000,1.000000,1.000000,391589.428936,525.000000,4.000000
315799.60095215,234950.06591797,14.20100021,0,1,1,10.000000,-20.000000,0.000000,1.000000,1.000000,1.000000,391589.438275,251.000000,4.000000
315799.59704590,234950.07421875,13.78999996,0,1,1,10.000000,-20.000000,0.000000,1.000000,1.000000,1.000000,391589.438275,269.000000,4.000000
315799.59594727,234950.08593750,13.38599968,0,1,1,10.000000,-20.000000,0.000000,1.000000,1.000000,1.000000,391589.438275,248.000000,4.000000
315799.58801270,234950.08886719,12.99899960,0,1,1,10.000000,-20.000000,0.000000,1.000000,1.000000,1.000000,391589.438336,300.000000,4.000000
315799.59399414,234950.10791016,12.61600018,0,1,1,10.000000,-20.000000,0.000000,1.000000,1.000000,1.000000,391589.438336,264.000000,4.000000
315799.54699707,234950.25976563,14.34700012,0,1,1,10.000000,-20.000000,0.000000,1.000000,1.000000,1.000000,391589.447674,260.000000,4.000000
315799.54199219,234950.26708984,13.93400002,0,1,1,10.000000,-20.000000,0.000000,1.000000,1.000000,1.000000,391589.447674,294.000000,4.000000
315799.53894043,234950.27587891,13.53499985,0,1,1,10.000000,-20.000000,0.000000,1.000000,1.000000,1.000000,391589.447674,270.000000,4.000000
315799.53601074,234950.28515625,13.14700031,0,1,1,10.000000,-20.000000,0.000000,1.000000,1.000000,1.000000,391589.447674,267.000000,4.000000
315799.53601074,234950.29785156,12.75100040,0,1,1,10.000000,-20.000000,0.000000,1.000000,1.000000,1.000000,391589.447674,267.000000,4.000000
315799.53295898,234950.30712891,12.36999989,0,1,1,10.000000,-20.000000,0.000000,1.000000,1.000000,1.000000,391589.447674,226.000000,4.000000
315799.72802734,234949.82421875,12.58100033,0,1,1,11.000000,-5.000000,0.000000,1.000000,2.000000,2.000000,391899.122662,260.000000,4.000000
315799.98498535,234948.66796875,12.97500038,0,1,1,11.000000,-5.000000,0.000000,1.000000,3.000000,3.000000,391899.066388,13.000000,4.000000
315800.12500000,234948.48876953,12.63700008,0,1,1,11.000000,-5.000000,0.000000,1.000000,3.000000,2.000000,391899.057110,122.000000,4.000000
