//X,Y,Z,Rf,Gf,Bf,Point Source ID,Scan Angle Rank,Flightline Edge,Scan Direction,Number of Returns,Return Number,Time,Intensity,Classification
315796.73803711,234952.22900391,14.26099968,0,1,1,10.000000,-20.000000,0.000000,1.000000,1.000000,1.000000,391589.607037,420.000000,4.000000
315796.71801758,234952.22216797,13.81000042,0,1,1,10.000000,-20.000000,0.000000,1.000000,1.000000,1.000000,391589.607037,587.000000,4.000000
315796.71398926,234952.23095703,13.40999985,0,1,1,10.000000,-20.000000,0.000000,1.000000,1.000000,1.000000,391589.607037,535.000000,4.000000
315796.70495605,234952.23583984,12.97399998,0,1,1,10.000000,-20.000000,0.000000,1.000000,1.000000,1.000000,391589.607037,555.000000,4.000000
315796.69396973,234952.23681641,12.57400036,0,1,1,10.000000,-20.000000,0.000000,1.000000,1.000000,1.000000,391589.607037,530.000000,4.000000
315796.71997070,234952.17382813,15.29599953,0,1,1,10.000000,-20.000000,0.000000,1.000000,1.000000,1.000000,391589.607037,333.000000,4.000000
315796.76293945,234952.22900391,15.07699966,0,1,1,10.000000,-20.000000,0.000000,1.000000,1.000000,1.000000,391589.607037,103.000000,4.000000
315796.84594727,234952.32324219,15.02400017,0,1,1,10.000000,-20.000000,0.000000,1.000000,1.000000,1.000000,391589.607037,204.000000,4.000000
315796.53894043,234952.22998047,15.18000031,0,1,1,10.000000,-20.000000,0.000000,1.000000,1.000000,1.000000,391589.616436,346.000000,4.000000
315796.59899902,234952.30175781,15.02900028,0,1,1,10.000000,-20.000000,0.000000,1.000000,1.000000,1.000000,391589.616436,89.000000,4.000000
315796.67297363,234952.38623047,14.94099998,0,1,1,10.000000,-20.000000,0.000000,1.000000,1.000000,1.000000,391589.616436,257.000000,4.000000
315796.52001953,234952.24804688,14.00899982,0,1,1,10.000000,-20.000000,0.000000,1.000000,1.000000,1.000000,391589.616436,329.000000,4.000000
315796.50695801,234952.24804688,13.58100033,0,1,1,10.000000,-20.000000,0.000000,1.000000,1.000000,1.000000,391589.616436,302.000000,4.000000
315796.49304199,234952.24707031,13.14299965,0,1,1,10.000000,-20.000000,0.000000,1.000000,1.000000,1.000000,391589.616436,350.000000,4.000000
315796.47998047,234952.24804688,12.69299984,0,1,1,10.000000,-20.000000,0.000000,1.000000,1.000000,1.000000,391589.616436,369.000000,4.000000
315796.46997070,234952.25000000,12.29599953,0,1,1,10.000000,-20.000000,0.000000,1.000000,1.000000,1.000000,391589.616436,359.000000,4.000000
315796.48205566,234952.50195313,14.93999958,0,1,1,10.000000,-20.000000,0.000000,1.000000,2.000000,1.000000,391589.625775,37.000000,4.000000
315796.60705566,234952.34619141,15.06000042,0,1,1,11.000000,-6.000000,0.000000,1.000000,2.000000,2.000000,391899.375714,60.000000,4.000000
315796.69396973,234952.43310547,15.06200027,0,1,1,11.000000,-5.000000,0.000000,1.000000,3.000000,1.000000,391899.375714,36.000000,4.000000
315796.56396484,234952.28613281,13.03999996,0,1,1,11.000000,-5.000000,0.000000,1.000000,3.000000,2.000000,391899.375714,99.000000,4.000000
315796.52001953,234952.23583984,12.35000038,0,1,1,11.000000,-5.000000,0.000000,1.000000,3.000000,3.000000,391899.375714,97.000000,4.000000
315796.48999023,234952.38183594,15.00599957,0,1,1,11.000000,-6.000000,0.000000,1.000000,2.000000,2.000000,391899.385113,82.000000,4.000000
315796.58398438,234952.47705078,15.02400017,0,1,1,11.000000,-6.000000,0.000000,1.000000,2.000000,1.000000,391899.385113,47.000000,4.000000
315796.41796875,234952.45703125,14.97599983,0,1,1,11.000000,-6.000000,0.000000,1.000000,2.000000,1.000000,391899.394391,30.000000,4.000000
315796.75097656,234952.35498047,15.08399963,0,1,1,11.000000,-5.000000,0.000000,1.000000,2.000000,2.000000,391899.366314,97.000000,4.000000
315796.68005371,234952.26220703,12.47099972,0,1,1,11.000000,-5.000000,0.000000,1.000000,1.000000,1.000000,391899.366314,434.000000,4.000000
315796.47094727,234952.21582031,13.51799965,0,1,1,21.000000,-11.000000,0.000000,1.000000,1.000000,1.000000,394521.769757,28.000000,4.000000
315796.46398926,234952.23779297,12.89999962,0,1,1,21.000000,-11.000000,0.000000,1.000000,2.000000,2.000000,394521.769757,133.000000,4.000000
315796.45898438,234952.25781250,12.27299976,0,1,1,21.000000,-11.000000,0.000000,1.000000,1.000000,1.000000,394521.769757,207.000000,4.000000
315796.67297363,234952.18408203,15.16199970,0,1,1,21.000000,-11.000000,0.000000,1.000000,2.000000,2.000000,394521.760235,117.000000,4.000000
315796.61499023,234952.29589844,15.10299969,0,1,1,21.000000,-11.000000,0.000000,1.000000,1.000000,1.000000,394521.760479,110.000000,4.000000
315796.55700684,234952.40722656,15.05900002,0,1,1,21.000000,-11.000000,0.000000,1.000000,2.000000,1.000000,394521.760479,107.000000,4.000000
315796.69897461,234952.15722656,13.61200047,0,1,1,21.000000,-11.000000,0.000000,1.000000,2.000000,2.000000,394521.760479,14.000000,4.000000
315796.49304199,234952.52880859,14.96700001,0,1,1,21.000000,-11.000000,0.000000,1.000000,2.000000,1.000000,394521.760479,13.000000,4.000000
315796.64599609,234952.26123047,13.41199970,0,1,1,21.000000,-11.000000,0.000000,1.000000,2.000000,2.000000,394521.760479,319.000000,4.000000
315796.65197754,234952.26220703,12.66499996,0,1,1,21.000000,-11.000000,0.000000,1.000000,1.000000,1.000000,394521.760479,368.000000,4.000000
315796.88098145,234952.30810547,15.18799973,0,1,1,21.000000,-11.000000,0.000000,1.000000,2.000000,1.000000,394521.750958,128.000000,4.000000
315798.09497070,234951.93310547,14.97399998,0,1,1,10.000000,-20.000000,0.000000,1.000000,1.000000,1.000000,391589.550824,180.000000,4.000000
315798.21398926,234951.71191406,14.36600018,0,1,1,10.000000,-20.000000,0.000000,1.000000,1.000000,1.000000,391589.541424,369.000000,4.000000
315798.20495605,234951.71484375,13.95100021,0,1,1,10.000000,-20.000000,0.000000,1.000000,1.000000,1.000000,391589.541424,310.000000,4.000000
315798.19702148,234951.71923828,13.55599976,0,1,1,10.000000,-20.000000,0.000000,1.000000,1.000000,1.000000,391589.541424,254.000000,4.000000
315798.19104004,234951.72509766,13.16399956,0,1,1,10.000000,-20.000000,0.000000,1.000000,1.000000,1.000000,391589.541424,276.000000,4.000000
315798.17895508,234951.72607422,12.73499966,0,1,1,10.000000,-20.000000,0.000000,1.000000,1.000000,1.000000,391589.541424,279.000000,4.000000
315798.17102051,234951.73095703,12.29300022,0,1,1,10.000000,-20.000000,0.000000,1.000000,1.000000,1.000000,391589.541424,285.000000,4.000000
315798.22595215,234951.69287109,12.87100029,0,1,1,11.000000,-5.000000,0.000000,1.000000,2.000000,2.000000,391899.263287,214.000000,4.000000
315798.19299316,234951.86523438,14.96899986,0,1,1,11.000000,-5.000000,0.000000,1.000000,3.000000,2.000000,391899.272686,87.000000,4.000000
315798.14196777,234951.93212891,15.00100040,0,1,1,11.000000,-5.000000,0.000000,1.000000,2.000000,1.000000,391899.281964,129.000000,4.000000
315798.15905762,234951.66992188,13.31000042,0,1,1,21.000000,-11.000000,0.000000,1.000000,2.000000,2.000000,394521.713360,15.000000,4.000000
315798.17004395,234951.91406250,15.02600002,0,1,1,21.000000,-12.000000,0.000000,1.000000,2.000000,1.000000,394521.704083,150.000000,4.000000
315797.95495605,234951.76904297,15.21199989,0,1,1,10.000000,-20.000000,0.000000,1.000000,1.000000,1.000000,391589.550824,324.000000,4.000000
315798.01098633,234951.83691406,15.02999973,0,1,1,10.000000,-20.000000,0.000000,1.000000,1.000000,1.000000,391589.550824,223.000000,4.000000
315797.97399902,234951.82519531,14.13500023,0,1,1,10.000000,-20.000000,0.000000,1.000000,1.000000,1.000000,391589.550824,592.000000,4.000000
315797.96594238,234951.83007813,13.73600006,0,1,1,10.000000,-20.000000,0.000000,1.000000,1.000000,1.000000,391589.550824,587.000000,4.000000
315797.95703125,234951.83300781,13.33699989,0,1,1,10.000000,-20.000000,0.000000,1.000000,1.000000,1.000000,391589.550824,583.000000,4.000000
315797.95202637,234951.83984375,12.93700027,0,1,1,10.000000,-20.000000,0.000000,1.000000,1.000000,1.000000,391589.550824,515.000000,4.000000
315797.93200684,234951.83300781,12.47700024,0,1,1,10.000000,-20.000000,0.000000,1.000000,1.000000,1.000000,391589.550824,591.000000,4.000000
315797.64294434,234952.00683594,15.15799999,0,1,1,10.000000,-20.000000,0.000000,1.000000,1.000000,1.000000,391589.569561,118.000000,4.000000
315797.68896484,234952.06494141,14.93599987,0,1,1,10.000000,-20.000000,0.000000,1.000000,1.000000,1.000000,391589.569561,541.000000,4.000000
315797.34301758,234951.73583984,13.22999954,0,1,1,10.000000,-20.000000,0.000000,1.000000,2.000000,1.000000,391589.569561,172.000000,4.000000
315797.17199707,234952.10107422,15.23499966,0,1,1,10.000000,-20.000000,0.000000,1.000000,1.000000,1.000000,391589.588299,125.000000,4.000000
315797.26794434,234952.20800781,15.23200035,0,1,1,10.000000,-20.000000,0.000000,1.000000,1.000000,1.000000,391589.588299,102.000000,4.000000
315797.27502441,234952.22802734,14.88899994,0,1,1,10.000000,-20.000000,0.000000,1.000000,1.000000,1.000000,391589.588299,616.000000,4.000000
315796.93701172,234951.90722656,13.23200035,0,1,1,10.000000,-20.000000,0.000000,1.000000,1.000000,1.000000,391589.588299,148.000000,4.000000
315797.73205566,234951.86718750,15.19499969,0,1,1,10.000000,-20.000000,0.000000,1.000000,1.000000,1.000000,391589.560162,336.000000,2.000000
315797.80700684,234951.95312500,15.10000038,0,1,1,10.000000,-20.000000,0.000000,1.000000,1.000000,1.000000,391589.560162,121.000000,2.000000
315797.86804199,234952.02685547,14.92300034,0,1,1,10.000000,-20.000000,0.000000,1.000000,1.000000,1.000000,391589.560162,378.000000,2.000000
315797.53796387,234951.71386719,13.31999969,0,1,1,10.000000,-20.000000,0.000000,1.000000,1.000000,1.000000,391589.560162,192.000000,4.000000
315797.57104492,234951.92285156,15.23099995,0,1,1,10.000000,-20.000000,0.000000,1.000000,1.000000,1.000000,391589.569561,259.000000,4.000000
315797.40405273,234951.96679688,15.39000034,0,1,1,10.000000,-20.000000,0.000000,1.000000,1.000000,1.000000,391589.578900,337.000000,4.000000
315797.46203613,234952.03613281,15.23799992,0,1,1,10.000000,-20.000000,0.000000,1.000000,1.000000,1.000000,391589.578900,130.000000,4.000000
315797.51904297,234952.10400391,15.08899975,0,1,1,10.000000,-20.000000,0.000000,1.000000,1.000000,1.000000,391589.578900,180.000000,4.000000
315797.54895020,234952.14697266,14.81200027,0,1,1,10.000000,-20.000000,0.000000,1.000000,3.000000,1.000000,391589.578900,162.000000,4.000000
315797.23706055,234951.83984375,13.62699986,0,1,1,10.000000,-20.000000,0.000000,1.000000,3.000000,2.000000,391589.578900,73.000000,4.000000
315797.23303223,234951.84814453,13.22599983,0,1,1,10.000000,-20.000000,0.000000,1.000000,2.000000,1.000000,391589.578900,247.000000,4.000000
315796.96899414,234952.08398438,15.30799961,0,1,1,10.000000,-20.000000,0.000000,1.000000,1.000000,1.000000,391589.597638,289.000000,4.000000
315797.03796387,234952.16406250,15.20600033,0,1,1,10.000000,-20.000000,0.000000,1.000000,1.000000,1.000000,391589.597638,88.000000,4.000000
315797.09997559,234952.23779297,15.06700039,0,1,1,10.000000,-20.000000,0.000000,1.000000,1.000000,1.000000,391589.597699,363.000000,4.000000
315797.12304688,234952.27197266,14.80700016,0,1,1,10.000000,-20.000000,0.000000,1.000000,2.000000,1.000000,391589.597699,111.000000,4.000000
315796.80395508,234951.97216797,13.19900036,0,1,1,10.000000,-20.000000,0.000000,1.000000,1.000000,1.000000,391589.597699,270.000000,4.000000
315797.26196289,234952.26220703,15.07699966,0,1,1,11.000000,-5.000000,0.000000,1.000000,2.000000,1.000000,391899.338238,29.000000,4.000000
315797.04504395,234952.24023438,15.21800041,0,1,1,11.000000,-5.000000,0.000000,1.000000,2.000000,2.000000,391899.347638,31.000000,4.000000
315796.99804688,234952.28320313,15.18999958,0,1,1,11.000000,-5.000000,0.000000,1.000000,3.000000,2.000000,391899.356915,117.000000,4.000000
315797.69897461,234952.13623047,15.21100044,0,1,1,11.000000,-5.000000,0.000000,1.000000,2.000000,1.000000,391899.310162,26.000000,4.000000
315797.51904297,234952.15283203,15.24100018,0,1,1,11.000000,-5.000000,0.000000,1.000000,2.000000,1.000000,391899.319439,141.000000,4.000000
315797.34094238,234952.17285156,15.31299973,0,1,1,11.000000,-5.000000,0.000000,1.000000,3.000000,2.000000,391899.328839,113.000000,4.000000
315797.18505859,234952.18701172,15.27000046,0,1,1,11.000000,-5.000000,0.000000,1.000000,2.000000,2.000000,391899.338238,29.000000,4.000000
315797.90502930,234952.00976563,15.09200001,0,1,1,11.000000,-5.000000,0.000000,1.000000,3.000000,2.000000,391899.291363,141.000000,4.000000
315797.81604004,234951.89892578,12.27999973,0,1,1,11.000000,-5.000000,0.000000,1.000000,1.000000,1.000000,391899.291363,383.000000,4.000000
315797.76098633,234951.99511719,15.14099979,0,1,1,11.000000,-5.000000,0.000000,1.000000,2.000000,2.000000,391899.300763,11.000000,4.000000
315797.84704590,234952.08105469,15.13000011,0,1,1,11.000000,-5.000000,0.000000,1.000000,2.000000,1.000000,391899.300763,68.000000,4.000000
315797.60595703,234952.04199219,15.20199966,0,1,1,11.000000,-5.000000,0.000000,1.000000,2.000000,2.000000,391899.310162,27.000000,4.000000
315798.07202148,234951.72900391,13.04399967,0,1,1,11.000000,-5.000000,0.000000,1.000000,3.000000,3.000000,391899.272686,23.000000,4.000000
315798.06201172,234951.85302734,15.08100033,0,1,1,11.000000,-5.000000,0.000000,1.000000,2.000000,2.000000,391899.281964,8.000000,4.000000
315798.00000000,234951.77197266,12.73700047,0,1,1,11.000000,-5.000000,0.000000,1.000000,2.000000,2.000000,391899.281964,21.000000,4.000000
315796.94201660,234952.18994141,15.23499966,0,1,1,21.000000,-11.000000,0.000000,1.000000,1.000000,1.000000,394521.750958,79.000000,4.000000
315797.15698242,234952.14990234,15.28699970,0,1,1,21.000000,-11.000000,0.000000,1.000000,1.000000,1.000000,394521.741681,112.000000,4.000000
315797.09997559,234952.25976563,15.19900036,0,1,1,21.000000,-11.000000,0.000000,1.000000,2.000000,1.000000,394521.741681,122.000000,4.000000
315797.05895996,234952.34179688,14.92500019,0,1,1,21.000000,-11.000000,0.000000,1.000000,2.000000,1.000000,394521.741681,10.000000,4.000000
315797.40600586,234952.06884766,15.31299973,0,1,1,21.000000,-11.000000,0.000000,1.000000,1.000000,1.000000,394521.732159,94.000000,4.000000
315797.35595703,234952.16601563,15.11900043,0,1,1,21.000000,-11.000000,0.000000,1.000000,2.000000,1.000000,394521.732159,306.000000,4.000000
315797.31494141,234952.24804688,14.90699959,0,1,1,21.000000,-11.000000,0.000000,1.000000,2.000000,1.000000,394521.732159,9.000000,4.000000
315797.73498535,234951.85791016,15.28899956,0,1,1,21.000000,-11.000000,0.000000,1.000000,2.000000,2.000000,394521.722882,107.000000,4.000000
315797.67700195,234951.96777344,15.21700001,0,1,1,21.000000,-11.000000,0.000000,1.000000,1.000000,1.000000,394521.722882,148.000000,4.000000
315797.60998535,234952.09716797,15.21800041,0,1,1,21.000000,-11.000000,0.000000,1.000000,2.000000,1.000000,394521.722882,115.000000,4.000000
315797.78198242,234951.79492188,13.50300026,0,1,1,21.000000,-11.000000,0.000000,1.000000,2.000000,2.000000,394521.722882,21.000000,4.000000
315797.57604980,234952.16699219,14.82699966,0,1,1,21.000000,-11.000000,0.000000,1.000000,2.000000,1.000000,394521.722882,11.000000,4.000000
315797.78100586,234951.80810547,12.78199959,0,1,1,21.000000,-11.000000,0.000000,1.000000,2.000000,2.000000,394521.722882,324.000000,4.000000
315798.10900879,234951.73681641,15.12899971,0,1,1,21.000000,-12.000000,0.000000,1.000000,1.000000,1.000000,394521.713360,248.000000,4.000000
315798.05395508,234951.84277344,15.05200005,0,1,1,21.000000,-12.000000,0.000000,1.000000,1.000000,1.000000,394521.713360,169.000000,4.000000
315797.97802734,234951.98681641,15.09899998,0,1,1,21.000000,-11.000000,0.000000,1.000000,2.000000,1.000000,394521.713360,90.000000,4.000000
315798.13195801,234951.72705078,12.95100021,0,1,1,21.000000,-11.000000,0.000000,1.000000,1.000000,1.000000,394521.713360,158.000000,4.000000
