//X,Y,Z,Rf,Gf,Bf,Point Source ID,Scan Angle Rank,Flightline Edge,Scan Direction,Number of Returns,Return Number,Time,Intensity,Classification
315792.77001953,234940.91796875,22.42000008,0,0.333333,1,11.000000,-8.000000,0.000000,1.000000,1.000000,1.000000,391899.047467,363.000000,2.000000
315789.96105957,234938.32080078,22.41399956,0,0.333333,1,11.000000,-8.000000,0.000000,1.000000,2.000000,1.000000,391899.056744,111.000000,4.000000
315790.05798340,234938.41894531,22.42600060,0,0.333333,1,11.000000,-8.000000,0.000000,1.000000,1.000000,1.000000,391899.056744,507.000000,2.000000
315790.14794922,234938.50878906,22.38599968,0,0.333333,1,11.000000,-8.000000,0.000000,1.000000,1.000000,1.000000,391899.056744,465.000000,4.000000
315790.24194336,234938.60498047,22.43099976,0,0.333333,1,11.000000,-8.000000,0.000000,1.000000,1.000000,1.000000,391899.056744,340.000000,2.000000
315790.33300781,234938.69677734,22.42799950,0,0.333333,1,11.000000,-8.000000,0.000000,1.000000,1.000000,1.000000,391899.056744,440.000000,2.000000
315790.42102051,234938.78515625,22.41500092,0,0.333333,1,11.000000,-8.000000,0.000000,1.000000,1.000000,1.000000,391899.056744,364.000000,2.000000
315790.50805664,234938.87304688,22.42799950,0,0.333333,1,11.000000,-8.000000,0.000000,1.000000,1.000000,1.000000,391899.056744,673.000000,2.000000
315790.59802246,234938.96386719,22.43099976,0,0.333333,1,11.000000,-8.000000,0.000000,1.000000,1.000000,1.000000,391899.056744,394.000000,2.000000
315790.68798828,234939.05517578,22.41600037,0,0.333333,1,11.000000,-8.000000,0.000000,1.000000,1.000000,1.000000,391899.056744,471.000000,2.000000
315790.78503418,234939.15283203,22.42300034,0,0.333333,1,11.000000,-8.000000,0.000000,1.000000,1.000000,1.000000,391899.056744,559.000000,2.000000
315790.86804199,234939.23681641,22.40600014,0,0.333333,1,11.000000,-8.000000,0.000000,1.000000,1.000000,1.000000,391899.056744,325.000000,2.000000
315790.96496582,234939.33398438,22.39599991,0,0.333333,1,11.000000,-8.000000,0.000000,1.000000,1.000000,1.000000,391899.056744,351.000000,2.000000
315791.05297852,234939.42285156,22.42799950,0,0.333333,1,11.000000,-8.000000,0.000000,1.000000,1.000000,1.000000,391899.056744,364.000000,2.000000
315791.14196777,234939.51318359,22.42799950,0,0.333333,1,11.000000,-8.000000,0.000000,1.000000,1.000000,1.000000,391899.056744,314.000000,2.000000
315791.22595215,234939.59814453,22.42200089,0,0.333333,1,11.000000,-8.000000,0.000000,1.000000,2.000000,1.000000,391899.056744,311.000000,4.000000
315791.32299805,234939.69580078,22.41699982,0,0.333333,1,11.000000,-8.000000,0.000000,1.000000,1.000000,1.000000,391899.056744,329.000000,2.000000
315791.41601563,234939.79003906,22.42900085,0,0.333333,1,11.000000,-8.000000,0.000000,1.000000,1.000000,1.000000,391899.056744,255.000000,2.000000
315791.50402832,234939.87890625,22.42700005,0,0.333333,1,11.000000,-8.000000,0.000000,1.000000,1.000000,1.000000,391899.056744,379.000000,2.000000
315791.59594727,234939.97216797,22.42600060,0,0.333333,1,11.000000,-8.000000,0.000000,1.000000,1.000000,1.000000,391899.056744,466.000000,2.000000
315791.68798828,234940.06396484,22.43199921,0,0.333333,1,11.000000,-8.000000,0.000000,1.000000,1.000000,1.000000,391899.056866,421.000000,2.000000
315791.77197266,234940.14892578,22.42700005,0,0.333333,1,11.000000,-8.000000,0.000000,1.000000,1.000000,1.000000,391899.056866,445.000000,2.000000
315791.85900879,234940.23681641,22.42099953,0,0.333333,1,11.000000,-8.000000,0.000000,1.000000,1.000000,1.000000,391899.056866,510.000000,2.000000
315791.95300293,234940.33203125,22.43099976,0,0.333333,1,11.000000,-8.000000,0.000000,1.000000,1.000000,1.000000,391899.056866,404.000000,2.000000
315792.04797363,234940.42675781,22.40699959,0,0.333333,1,11.000000,-8.000000,0.000000,1.000000,1.000000,1.000000,391899.056866,588.000000,2.000000
315792.13305664,234940.51318359,22.41500092,0,0.333333,1,11.000000,-8.000000,0.000000,1.000000,1.000000,1.000000,391899.056866,667.000000,2.000000
315792.22998047,234940.61083984,22.42600060,0,0.333333,1,11.000000,-8.000000,0.000000,1.000000,1.000000,1.000000,391899.056866,369.000000,2.000000
315792.31396484,234940.69580078,22.41099930,0,0.333333,1,11.000000,-8.000000,0.000000,1.000000,1.000000,1.000000,391899.056866,535.000000,2.000000
315792.40405273,234940.78710938,22.41500092,0,0.333333,1,11.000000,-8.000000,0.000000,1.000000,1.000000,1.000000,391899.056866,576.000000,2.000000
315792.48901367,234940.87207031,22.42300034,0,0.333333,1,11.000000,-8.000000,0.000000,1.000000,1.000000,1.000000,391899.056866,529.000000,2.000000
315792.58496094,234940.96923828,22.41900063,0,0.333333,1,11.000000,-8.000000,0.000000,1.000000,1.000000,1.000000,391899.056866,536.000000,2.000000
315792.67602539,234941.06103516,22.39999962,0,0.333333,1,11.000000,-8.000000,0.000000,1.000000,1.000000,1.000000,391899.056866,636.000000,2.000000
315792.76599121,234941.15185547,22.41699982,0,0.333333,1,11.000000,-8.000000,0.000000,1.000000,1.000000,1.000000,391899.056866,282.000000,2.000000
315789.89501953,234938.57812500,22.43499947,0,0.333333,1,11.000000,-8.000000,0.000000,1.000000,2.000000,1.000000,391899.066143,203.000000,4.000000
315789.98596191,234938.66894531,22.41300011,0,0.333333,1,11.000000,-8.000000,0.000000,1.000000,1.000000,1.000000,391899.066143,492.000000,2.000000
315790.07995605,234938.76318359,22.40699959,0,0.333333,1,11.000000,-8.000000,0.000000,1.000000,1.000000,1.000000,391899.066143,543.000000,2.000000
315790.16796875,234938.85302734,22.43799973,0,0.333333,1,11.000000,-8.000000,0.000000,1.000000,1.000000,1.000000,391899.066143,293.000000,2.000000
315790.26501465,234938.95019531,22.41699982,0,0.333333,1,11.000000,-8.000000,0.000000,1.000000,1.000000,1.000000,391899.066143,559.000000,2.000000
315790.34899902,234939.03515625,22.41200066,0,0.333333,1,11.000000,-8.000000,0.000000,1.000000,1.000000,1.000000,391899.066143,329.000000,2.000000
315790.43603516,234939.12304688,22.40699959,0,0.333333,1,11.000000,-8.000000,0.000000,1.000000,1.000000,1.000000,391899.066143,276.000000,2.000000
315790.52099609,234939.20800781,22.40299988,0,0.333333,1,11.000000,-8.000000,0.000000,1.000000,1.000000,1.000000,391899.066143,272.000000,2.000000
315790.62097168,234939.31005859,22.41399956,0,0.333333,1,11.000000,-8.000000,0.000000,1.000000,1.000000,1.000000,391899.066143,370.000000,2.000000
315790.71398926,234939.40283203,22.41500092,0,0.333333,1,11.000000,-8.000000,0.000000,1.000000,1.000000,1.000000,391899.066143,556.000000,2.000000
315790.80004883,234939.49023438,22.41500092,0,0.333333,1,11.000000,-8.000000,0.000000,1.000000,1.000000,1.000000,391899.066143,304.000000,2.000000
315790.89294434,234939.58398438,22.42300034,0,0.333333,1,11.000000,-8.000000,0.000000,1.000000,1.000000,1.000000,391899.066143,333.000000,2.000000
315790.98706055,234939.67919922,22.44099998,0,0.333333,1,11.000000,-8.000000,0.000000,1.000000,1.000000,1.000000,391899.066143,293.000000,2.000000
315791.07104492,234939.76318359,22.42200089,0,0.333333,1,11.000000,-8.000000,0.000000,1.000000,1.000000,1.000000,391899.066143,345.000000,2.000000
315791.15600586,234939.84912109,22.41399956,0,0.333333,1,11.000000,-8.000000,0.000000,1.000000,1.000000,1.000000,391899.066143,349.000000,2.000000
315791.24902344,234939.94287109,22.42300034,0,0.333333,1,11.000000,-8.000000,0.000000,1.000000,1.000000,1.000000,391899.066143,488.000000,2.000000
315791.34802246,234940.04296875,22.42300034,0,0.333333,1,11.000000,-8.000000,0.000000,1.000000,1.000000,1.000000,391899.066143,314.000000,2.000000
315791.43395996,234940.12988281,22.43000031,0,0.333333,1,11.000000,-8.000000,0.000000,1.000000,1.000000,1.000000,391899.066143,399.000000,2.000000
315791.52600098,234940.22216797,22.40500069,0,0.333333,1,11.000000,-8.000000,0.000000,1.000000,1.000000,1.000000,391899.066143,652.000000,2.000000
315791.61303711,234940.31005859,22.42700005,0,0.333333,1,11.000000,-8.000000,0.000000,1.000000,1.000000,1.000000,391899.066143,351.000000,2.000000
315791.70397949,234940.40087891,22.42000008,0,0.333333,1,11.000000,-8.000000,0.000000,1.000000,1.000000,1.000000,391899.066143,502.000000,2.000000
315791.78894043,234940.48681641,22.41799927,0,0.333333,1,11.000000,-8.000000,0.000000,1.000000,1.000000,1.000000,391899.066143,450.000000,2.000000
315791.88098145,234940.58007813,22.39500046,0,0.333333,1,11.000000,-8.000000,0.000000,1.000000,1.000000,1.000000,391899.066143,704.000000,2.000000
315791.97399902,234940.67382813,22.40900040,0,0.333333,1,11.000000,-8.000000,0.000000,1.000000,1.000000,1.000000,391899.066143,549.000000,2.000000
315792.06604004,234940.76708984,22.41600037,0,0.333333,1,11.000000,-8.000000,0.000000,1.000000,1.000000,1.000000,391899.066143,354.000000,2.000000
315792.15905762,234940.85986328,22.42200089,0,0.333333,1,11.000000,-8.000000,0.000000,1.000000,1.000000,1.000000,391899.066143,491.000000,2.000000
315792.24499512,234940.94677734,22.40900040,0,0.333333,1,11.000000,-8.000000,0.000000,1.000000,1.000000,1.000000,391899.066143,580.000000,2.000000
315792.32995605,234941.03320313,22.41500092,0,0.333333,1,11.000000,-8.000000,0.000000,1.000000,1.000000,1.000000,391899.066143,712.000000,2.000000
315792.42102051,234941.12500000,22.40800095,0,0.333333,1,11.000000,-8.000000,0.000000,1.000000,1.000000,1.000000,391899.066143,622.000000,2.000000
315792.51098633,234941.21484375,22.38400078,0,0.333333,1,11.000000,-8.000000,0.000000,1.000000,1.000000,1.000000,391899.066266,754.000000,2.000000
315792.60900879,234941.31396484,22.42000008,0,0.333333,1,11.000000,-8.000000,0.000000,1.000000,1.000000,1.000000,391899.066266,567.000000,2.000000
315792.69104004,234941.39697266,22.39900017,0,0.333333,1,11.000000,-8.000000,0.000000,1.000000,1.000000,1.000000,391899.066266,346.000000,2.000000
315789.83898926,234938.70703125,22.40600014,0,0.333333,1,11.000000,-8.000000,0.000000,1.000000,2.000000,1.000000,391899.075543,127.000000,4.000000
315789.93103027,234938.79980469,22.42200089,0,0.333333,1,11.000000,-8.000000,0.000000,1.000000,1.000000,1.000000,391899.075543,569.000000,2.000000
315790.01794434,234938.88818359,22.38899994,0,0.333333,1,11.000000,-8.000000,0.000000,1.000000,1.000000,1.000000,391899.075543,508.000000,2.000000
315790.11901855,234938.98876953,22.42200089,0,0.333333,1,11.000000,-8.000000,0.000000,1.000000,1.000000,1.000000,391899.075543,309.000000,2.000000
315790.20495605,234939.07617188,22.43700027,0,0.333333,1,11.000000,-8.000000,0.000000,1.000000,1.000000,1.000000,391899.075543,404.000000,2.000000
315790.30004883,234939.17187500,22.41099930,0,0.333333,1,11.000000,-8.000000,0.000000,1.000000,1.000000,1.000000,391899.075543,534.000000,2.000000
315790.38403320,234939.25683594,22.40600014,0,0.333333,1,11.000000,-8.000000,0.000000,1.000000,1.000000,1.000000,391899.075543,405.000000,2.000000
315790.47497559,234939.34912109,22.42000008,0,0.333333,1,11.000000,-8.000000,0.000000,1.000000,1.000000,1.000000,391899.075543,293.000000,2.000000
315790.55895996,234939.43310547,22.41699982,0,0.333333,1,11.000000,-8.000000,0.000000,1.000000,1.000000,1.000000,391899.075543,481.000000,2.000000
315790.65795898,234939.53320313,22.42099953,0,0.333333,1,11.000000,-8.000000,0.000000,1.000000,1.000000,1.000000,391899.075543,559.000000,2.000000
315790.74902344,234939.62500000,22.42099953,0,0.333333,1,11.000000,-8.000000,0.000000,1.000000,1.000000,1.000000,391899.075543,289.000000,2.000000
315790.83703613,234939.71386719,22.41500092,0,0.333333,1,11.000000,-8.000000,0.000000,1.000000,1.000000,1.000000,391899.075543,321.000000,2.000000
315790.93103027,234939.80810547,22.42399979,0,0.333333,1,11.000000,-8.000000,0.000000,1.000000,1.000000,1.000000,391899.075543,369.000000,2.000000
315791.02197266,234939.90087891,22.42799950,0,0.333333,1,11.000000,-8.000000,0.000000,1.000000,1.000000,1.000000,391899.075543,443.000000,2.000000
315791.10498047,234939.98486328,22.42799950,0,0.333333,1,11.000000,-8.000000,0.000000,1.000000,1.000000,1.000000,391899.075543,455.000000,2.000000
315791.19396973,234940.07421875,22.42000008,0,0.333333,1,11.000000,-8.000000,0.000000,1.000000,1.000000,1.000000,391899.075543,337.000000,2.000000
315791.28698730,234940.16796875,22.42399979,0,0.333333,1,11.000000,-8.000000,0.000000,1.000000,1.000000,1.000000,391899.075543,283.000000,2.000000
315791.38500977,234940.26708984,22.42799950,0,0.333333,1,11.000000,-8.000000,0.000000,1.000000,1.000000,1.000000,391899.075543,395.000000,2.000000
315791.46801758,234940.35107422,22.43199921,0,0.333333,1,11.000000,-8.000000,0.000000,1.000000,1.000000,1.000000,391899.075543,588.000000,2.000000
315791.56298828,234940.44580078,22.41500092,0,0.333333,1,11.000000,-8.000000,0.000000,1.000000,1.000000,1.000000,391899.075543,486.000000,2.000000
315791.64904785,234940.53320313,22.42000008,0,0.333333,1,11.000000,-8.000000,0.000000,1.000000,1.000000,1.000000,391899.075543,385.000000,2.000000
315791.74096680,234940.62500000,22.42399979,0,0.333333,1,11.000000,-8.000000,0.000000,1.000000,1.000000,1.000000,391899.075543,465.000000,2.000000
315791.82397461,234940.70996094,22.42600060,0,0.333333,1,11.000000,-8.000000,0.000000,1.000000,1.000000,1.000000,391899.075543,542.000000,2.000000
315791.91699219,234940.80322266,22.39100075,0,0.333333,1,11.000000,-8.000000,0.000000,1.000000,1.000000,1.000000,391899.075543,784.000000,2.000000
315792.01000977,234940.89697266,22.39999962,0,0.333333,1,11.000000,-8.000000,0.000000,1.000000,1.000000,1.000000,391899.075543,661.000000,2.000000
315792.10400391,234940.99218750,22.43300056,0,0.333333,1,11.000000,-8.000000,0.000000,1.000000,1.000000,1.000000,391899.075543,600.000000,2.000000
315792.19104004,234941.08007813,22.40299988,0,0.333333,1,11.000000,-8.000000,0.000000,1.000000,1.000000,1.000000,391899.075543,513.000000,2.000000
315792.28295898,234941.17187500,22.42200089,0,0.333333,1,11.000000,-8.000000,0.000000,1.000000,1.000000,1.000000,391899.075543,515.000000,2.000000
315792.36694336,234941.25781250,22.42399979,0,0.333333,1,11.000000,-8.000000,0.000000,1.000000,1.000000,1.000000,391899.075543,564.000000,2.000000
315792.45605469,234941.34716797,22.40800095,0,0.333333,1,11.000000,-8.000000,0.000000,1.000000,1.000000,1.000000,391899.075543,618.000000,2.000000
315792.54895020,234941.44091797,22.42000008,0,0.333333,1,11.000000,-8.000000,0.000000,1.000000,1.000000,1.000000,391899.075543,508.000000,2.000000
315792.64196777,234941.53417969,22.38400078,0,0.333333,1,11.000000,-8.000000,0.000000,1.000000,1.000000,1.000000,391899.075543,330.000000,4.000000
315789.74804688,234938.88623047,22.40500069,0,0.333333,1,11.000000,-8.000000,0.000000,1.000000,2.000000,1.000000,391899.084820,16.000000,4.000000
315789.84497070,234938.98486328,22.47100067,0,0.333333,1,11.000000,-8.000000,0.000000,1.000000,1.000000,1.000000,391899.084942,540.000000,4.000000
315789.92395020,234939.06396484,22.40900040,0,0.333333,1,11.000000,-8.000000,0.000000,1.000000,1.000000,1.000000,391899.084942,434.000000,2.000000
315790.01501465,234939.15478516,22.35799980,0,0.333333,1,11.000000,-8.000000,0.000000,1.000000,1.000000,1.000000,391899.084942,260.000000,4.000000
315790.11804199,234939.25878906,22.46299934,0,0.333333,1,11.000000,-8.000000,0.000000,1.000000,1.000000,1.000000,391899.084942,378.000000,2.000000
315790.20397949,234939.34619141,22.42099953,0,0.333333,1,11.000000,-8.000000,0.000000,1.000000,1.000000,1.000000,391899.084942,712.000000,2.000000
315790.29504395,234939.43798828,22.41600037,0,0.333333,1,11.000000,-8.000000,0.000000,1.000000,1.000000,1.000000,391899.084942,461.000000,2.000000
315790.38500977,234939.52880859,22.42399979,0,0.333333,1,11.000000,-8.000000,0.000000,1.000000,1.000000,1.000000,391899.084942,286.000000,2.000000
315790.46899414,234939.61376953,22.40800095,0,0.333333,1,11.000000,-8.000000,0.000000,1.000000,1.000000,1.000000,391899.084942,400.000000,2.000000
315790.56005859,234939.70507813,22.41699982,0,0.333333,1,11.000000,-8.000000,0.000000,1.000000,1.000000,1.000000,391899.084942,701.000000,2.000000
315790.65405273,234939.79980469,22.43799973,0,0.333333,1,11.000000,-8.000000,0.000000,1.000000,1.000000,1.000000,391899.084942,404.000000,2.000000
315790.74804688,234939.89501953,22.42099953,0,0.333333,1,11.000000,-8.000000,0.000000,1.000000,1.000000,1.000000,391899.084942,354.000000,2.000000
315790.83300781,234939.98095703,22.41900063,0,0.333333,1,11.000000,-8.000000,0.000000,1.000000,1.000000,1.000000,391899.084942,363.000000,2.000000
315790.93505859,234940.08398438,22.45800018,0,0.333333,1,11.000000,-8.000000,0.000000,1.000000,1.000000,1.000000,391899.084942,395.000000,2.000000
315791.01501465,234940.16406250,22.41600037,0,0.333333,1,11.000000,-8.000000,0.000000,1.000000,1.000000,1.000000,391899.084942,627.000000,2.000000
315791.10400391,234940.25488281,22.42700005,0,0.333333,1,11.000000,-8.000000,0.000000,1.000000,1.000000,1.000000,391899.084942,293.000000,2.000000
315791.18994141,234940.34179688,22.43700027,0,0.333333,1,11.000000,-8.000000,0.000000,1.000000,1.000000,1.000000,391899.084942,299.000000,2.000000
315791.28796387,234940.43896484,22.42799950,0,0.333333,1,11.000000,-8.000000,0.000000,1.000000,1.000000,1.000000,391899.084942,350.000000,2.000000
315791.37805176,234940.53076172,22.42399979,0,0.333333,1,11.000000,-8.000000,0.000000,1.000000,1.000000,1.000000,391899.084942,430.000000,2.000000
315791.46704102,234940.62109375,22.43499947,0,0.333333,1,11.000000,-8.000000,0.000000,1.000000,1.000000,1.000000,391899.084942,566.000000,2.000000
315791.55603027,234940.70996094,22.39399910,0,0.333333,1,11.000000,-8.000000,0.000000,1.000000,1.000000,1.000000,391899.084942,229.000000,2.000000
315791.64904785,234940.80419922,22.41099930,0,0.333333,1,11.000000,-8.000000,0.000000,1.000000,1.000000,1.000000,391899.084942,477.000000,2.000000
315791.73498535,234940.89111328,22.43099976,0,0.333333,1,11.000000,-8.000000,0.000000,1.000000,1.000000,1.000000,391899.084942,492.000000,2.000000
315791.82202148,234940.97802734,22.41500092,0,0.333333,1,11.000000,-8.000000,0.000000,1.000000,1.000000,1.000000,391899.084942,474.000000,2.000000
315791.91503906,234941.07177734,22.41900063,0,0.333333,1,11.000000,-8.000000,0.000000,1.000000,1.000000,1.000000,391899.084942,384.000000,2.000000
315792.01293945,234941.17187500,22.43700027,0,0.333333,1,11.000000,-8.000000,0.000000,1.000000,1.000000,1.000000,391899.084942,399.000000,2.000000
315792.09594727,234941.25390625,22.41099930,0,0.333333,1,11.000000,-8.000000,0.000000,1.000000,1.000000,1.000000,391899.084942,548.000000,2.000000
315792.19201660,234941.35205078,22.41500092,0,0.333333,1,11.000000,-8.000000,0.000000,1.000000,1.000000,1.000000,391899.084942,471.000000,2.000000
315792.27697754,234941.43798828,22.42000008,0,0.333333,1,11.000000,-8.000000,0.000000,1.000000,1.000000,1.000000,391899.084942,609.000000,2.000000
315792.36596680,234941.52685547,22.40900040,0,0.333333,1,11.000000,-8.000000,0.000000,1.000000,1.000000,1.000000,391899.084942,701.000000,2.000000
315792.45104980,234941.61279297,22.41699982,0,0.333333,1,11.000000,-8.000000,0.000000,1.000000,1.000000,1.000000,391899.084942,414.000000,2.000000
315792.54895020,234941.71191406,22.43000031,0,0.333333,1,11.000000,-8.000000,0.000000,1.000000,1.000000,1.000000,391899.084942,554.000000,2.000000
315789.78405762,234939.08593750,22.41099930,0,0.333333,1,11.000000,-8.000000,0.000000,1.000000,1.000000,1.000000,391899.094220,245.000000,2.000000
315789.87194824,234939.17480469,22.42300034,0,0.333333,1,11.000000,-8.000000,0.000000,1.000000,1.000000,1.000000,391899.094220,587.000000,2.000000
315789.95605469,234939.25976563,22.37999916,0,0.333333,1,11.000000,-8.000000,0.000000,1.000000,1.000000,1.000000,391899.094220,307.000000,4.000000
315790.05395508,234939.35791016,22.43300056,0,0.333333,1,11.000000,-8.000000,0.000000,1.000000,1.000000,1.000000,391899.094220,266.000000,2.000000
315790.14794922,234939.45312500,22.42000008,0,0.333333,1,11.000000,-8.000000,0.000000,1.000000,1.000000,1.000000,391899.094220,599.000000,2.000000
315790.23400879,234939.54003906,22.41300011,0,0.333333,1,11.000000,-8.000000,0.000000,1.000000,1.000000,1.000000,391899.094220,378.000000,2.000000
315790.33300781,234939.63916016,22.42399979,0,0.333333,1,11.000000,-8.000000,0.000000,1.000000,1.000000,1.000000,391899.094220,439.000000,2.000000
315790.41394043,234939.72119141,22.40399933,0,0.333333,1,11.000000,-8.000000,0.000000,1.000000,1.000000,1.000000,391899.094220,643.000000,2.000000
315790.50402832,234939.81201172,22.41600037,0,0.333333,1,11.000000,-8.000000,0.000000,1.000000,1.000000,1.000000,391899.094220,398.000000,2.000000
315790.59094238,234939.89892578,22.40900040,0,0.333333,1,11.000000,-8.000000,0.000000,1.000000,1.000000,1.000000,391899.094220,519.000000,2.000000
315790.68701172,234939.99707031,22.41600037,0,0.333333,1,11.000000,-8.000000,0.000000,1.000000,1.000000,1.000000,391899.094342,289.000000,2.000000
315790.77795410,234940.08789063,22.41300011,0,0.333333,1,11.000000,-8.000000,0.000000,1.000000,1.000000,1.000000,391899.094342,309.000000,2.000000
315790.86901855,234940.18115234,22.43000031,0,0.333333,1,11.000000,-8.000000,0.000000,1.000000,1.000000,1.000000,391899.094342,273.000000,2.000000
315790.96105957,234940.27392578,22.42300034,0,0.333333,1,11.000000,-8.000000,0.000000,1.000000,1.000000,1.000000,391899.094342,364.000000,2.000000
315791.04895020,234940.36181641,22.41099930,0,0.333333,1,11.000000,-8.000000,0.000000,1.000000,1.000000,1.000000,391899.094342,332.000000,2.000000
315791.13403320,234940.44824219,22.41399956,0,0.333333,1,11.000000,-8.000000,0.000000,1.000000,1.000000,1.000000,391899.094342,296.000000,2.000000
315791.22399902,234940.53808594,22.41300011,0,0.333333,1,11.000000,-8.000000,0.000000,1.000000,1.000000,1.000000,391899.094342,318.000000,2.000000
315791.31701660,234940.63183594,22.41699982,0,0.333333,1,11.000000,-8.000000,0.000000,1.000000,1.000000,1.000000,391899.094342,373.000000,2.000000
315791.41198730,234940.72802734,22.41600037,0,0.333333,1,11.000000,-8.000000,0.000000,1.000000,1.000000,1.000000,391899.094342,503.000000,2.000000
315791.49597168,234940.81201172,22.39699936,0,0.333333,1,11.000000,-8.000000,0.000000,1.000000,1.000000,1.000000,391899.094342,520.000000,2.000000
315791.59399414,234940.91210938,22.42000008,0,0.333333,1,11.000000,-8.000000,0.000000,1.000000,1.000000,1.000000,391899.094342,429.000000,2.000000
315791.67895508,234940.99707031,22.41900063,0,0.333333,1,11.000000,-8.000000,0.000000,1.000000,1.000000,1.000000,391899.094342,398.000000,2.000000
315791.76696777,234941.08496094,22.39900017,0,0.333333,1,11.000000,-8.000000,0.000000,1.000000,1.000000,1.000000,391899.094342,534.000000,2.000000
315791.85302734,234941.17187500,22.40999985,0,0.333333,1,11.000000,-8.000000,0.000000,1.000000,1.000000,1.000000,391899.094342,462.000000,2.000000
315791.94995117,234941.27001953,22.41600037,0,0.333333,1,11.000000,-8.000000,0.000000,1.000000,1.000000,1.000000,391899.094342,368.000000,2.000000
315792.04101563,234941.36181641,22.39999962,0,0.333333,1,11.000000,-8.000000,0.000000,1.000000,1.000000,1.000000,391899.094342,584.000000,2.000000
315792.13098145,234941.45312500,22.41200066,0,0.333333,1,11.000000,-8.000000,0.000000,1.000000,1.000000,1.000000,391899.094342,646.000000,2.000000
315792.22204590,234941.54394531,22.40600014,0,0.333333,1,11.000000,-8.000000,0.000000,1.000000,1.000000,1.000000,391899.094342,769.000000,2.000000
315792.31103516,234941.63476563,22.40999985,0,0.333333,1,11.000000,-8.000000,0.000000,1.000000,1.000000,1.000000,391899.094342,600.000000,2.000000
315792.39697266,234941.72216797,22.40900040,0,0.333333,1,11.000000,-8.000000,0.000000,1.000000,1.000000,1.000000,391899.094342,572.000000,2.000000
315792.48596191,234941.81103516,22.40500069,0,0.333333,1,11.000000,-8.000000,0.000000,1.000000,1.000000,1.000000,391899.094342,577.000000,2.000000
315792.58203125,234941.90820313,22.46599960,0,0.333333,1,11.000000,-8.000000,0.000000,1.000000,2.000000,1.000000,391899.094342,133.000000,4.000000
315791.78002930,234941.41406250,22.40299988,0,0.333333,1,11.000000,-8.000000,0.000000,1.000000,1.000000,1.000000,391899.103741,850.000000,2.000000
315791.87597656,234941.51123047,22.41600037,0,0.333333,1,11.000000,-8.000000,0.000000,1.000000,1.000000,1.000000,391899.103741,575.000000,2.000000
315791.96704102,234941.60302734,22.41399956,0,0.333333,1,11.000000,-8.000000,0.000000,1.000000,1.000000,1.000000,391899.103741,529.000000,2.000000
315792.05700684,234941.69384766,22.40600014,0,0.333333,1,11.000000,-8.000000,0.000000,1.000000,1.000000,1.000000,391899.103741,455.000000,2.000000
315792.15002441,234941.78808594,22.40500069,0,0.333333,1,11.000000,-8.000000,0.000000,1.000000,1.000000,1.000000,391899.103741,642.000000,2.000000
315792.23803711,234941.87597656,22.41200066,0,0.333333,1,11.000000,-8.000000,0.000000,1.000000,1.000000,1.000000,391899.103741,486.000000,2.000000
315792.32299805,234941.96191406,22.41200066,0,0.333333,1,11.000000,-8.000000,0.000000,1.000000,1.000000,1.000000,391899.103741,481.000000,2.000000
315789.71496582,234939.33203125,22.45499992,0,0.333333,1,11.000000,-8.000000,0.000000,1.000000,2.000000,1.000000,391899.103619,126.000000,4.000000
315789.79797363,234939.41503906,22.43000031,0,0.333333,1,11.000000,-8.000000,0.000000,1.000000,1.000000,1.000000,391899.103619,514.000000,2.000000
315789.88903809,234939.50683594,22.41900063,0,0.333333,1,11.000000,-8.000000,0.000000,1.000000,1.000000,1.000000,391899.103619,558.000000,2.000000
315789.98205566,234939.60009766,22.43000031,0,0.333333,1,11.000000,-8.000000,0.000000,1.000000,1.000000,1.000000,391899.103619,342.000000,2.000000
315790.07495117,234939.69384766,22.41799927,0,0.333333,1,11.000000,-8.000000,0.000000,1.000000,1.000000,1.000000,391899.103619,528.000000,2.000000
315790.15905762,234939.77880859,22.40900040,0,0.333333,1,11.000000,-8.000000,0.000000,1.000000,1.000000,1.000000,391899.103619,307.000000,2.000000
315790.25805664,234939.87890625,22.41399956,0,0.333333,1,11.000000,-8.000000,0.000000,1.000000,1.000000,1.000000,391899.103619,330.000000,2.000000
315790.34399414,234939.96582031,22.41399956,0,0.333333,1,11.000000,-8.000000,0.000000,1.000000,1.000000,1.000000,391899.103619,217.000000,2.000000
315790.43103027,234940.05419922,22.41600037,0,0.333333,1,11.000000,-8.000000,0.000000,1.000000,1.000000,1.000000,391899.103619,373.000000,2.000000
315790.51501465,234940.13818359,22.41300011,0,0.333333,1,11.000000,-8.000000,0.000000,1.000000,1.000000,1.000000,391899.103619,488.000000,2.000000
315790.61499023,234940.23876953,22.41600037,0,0.333333,1,11.000000,-8.000000,0.000000,1.000000,1.000000,1.000000,391899.103619,293.000000,2.000000
315790.70703125,234940.33203125,22.41300011,0,0.333333,1,11.000000,-8.000000,0.000000,1.000000,1.000000,1.000000,391899.103619,346.000000,2.000000
315790.79602051,234940.42089844,22.42499924,0,0.333333,1,11.000000,-8.000000,0.000000,1.000000,1.000000,1.000000,391899.103619,358.000000,2.000000
315790.88598633,234940.51220703,22.41799927,0,0.333333,1,11.000000,-8.000000,0.000000,1.000000,1.000000,1.000000,391899.103619,394.000000,2.000000
315790.97497559,234940.60205078,22.39599991,0,0.333333,1,11.000000,-8.000000,0.000000,1.000000,1.000000,1.000000,391899.103619,465.000000,2.000000
315791.06298828,234940.69091797,22.41600037,0,0.333333,1,11.000000,-8.000000,0.000000,1.000000,1.000000,1.000000,391899.103619,593.000000,2.000000
315791.15100098,234940.77978516,22.42200089,0,0.333333,1,11.000000,-8.000000,0.000000,1.000000,1.000000,1.000000,391899.103619,356.000000,2.000000
315791.24194336,234940.87207031,22.41799927,0,0.333333,1,11.000000,-8.000000,0.000000,1.000000,1.000000,1.000000,391899.103619,477.000000,2.000000
315791.33996582,234940.97119141,22.41699982,0,0.333333,1,11.000000,-8.000000,0.000000,1.000000,1.000000,1.000000,391899.103619,604.000000,2.000000
315791.42602539,234941.05712891,22.41799927,0,0.333333,1,11.000000,-8.000000,0.000000,1.000000,1.000000,1.000000,391899.103619,333.000000,2.000000
315791.51904297,234941.15087891,22.40800095,0,0.333333,1,11.000000,-8.000000,0.000000,1.000000,1.000000,1.000000,391899.103741,337.000000,2.000000
315791.60498047,234941.23779297,22.42099953,0,0.333333,1,11.000000,-8.000000,0.000000,1.000000,1.000000,1.000000,391899.103741,411.000000,2.000000
315791.69702148,234941.33105469,22.41799927,0,0.333333,1,11.000000,-8.000000,0.000000,1.000000,1.000000,1.000000,391899.103741,454.000000,2.000000
315789.60900879,234939.50292969,22.43199921,0,0.333333,1,11.000000,-8.000000,0.000000,1.000000,2.000000,1.000000,391899.113018,15.000000,4.000000
315789.69396973,234939.58789063,22.44499969,0,0.333333,1,11.000000,-8.000000,0.000000,1.000000,1.000000,1.000000,391899.113018,384.000000,2.000000
315789.78100586,234939.67578125,22.41900063,0,0.333333,1,11.000000,-8.000000,0.000000,1.000000,1.000000,1.000000,391899.113018,416.000000,2.000000
315789.86499023,234939.76123047,22.40999985,0,0.333333,1,11.000000,-8.000000,0.000000,1.000000,1.000000,1.000000,391899.113018,467.000000,2.000000
315789.96704102,234939.86376953,22.45299911,0,0.333333,1,11.000000,-8.000000,0.000000,1.000000,1.000000,1.000000,391899.113018,369.000000,2.000000
315790.05297852,234939.95019531,22.40600014,0,0.333333,1,11.000000,-8.000000,0.000000,1.000000,1.000000,1.000000,391899.113018,833.000000,2.000000
315790.14404297,234940.04199219,22.41200066,0,0.333333,1,11.000000,-8.000000,0.000000,1.000000,1.000000,1.000000,391899.113018,337.000000,2.000000
315790.23596191,234940.13476563,22.41099930,0,0.333333,1,11.000000,-8.000000,0.000000,1.000000,1.000000,1.000000,391899.113018,314.000000,2.000000
315790.32604980,234940.22509766,22.40800095,0,0.333333,1,11.000000,-8.000000,0.000000,1.000000,1.000000,1.000000,391899.113018,374.000000,2.000000
315790.41003418,234940.31103516,22.41699982,0,0.333333,1,11.000000,-8.000000,0.000000,1.000000,1.000000,1.000000,391899.113018,493.000000,2.000000
315790.50195313,234940.40283203,22.43300056,0,0.333333,1,11.000000,-8.000000,0.000000,1.000000,1.000000,1.000000,391899.113018,370.000000,2.000000
315790.59301758,234940.49414063,22.41699982,0,0.333333,1,11.000000,-8.000000,0.000000,1.000000,1.000000,1.000000,391899.113018,510.000000,2.000000
315790.68896484,234940.59179688,22.41099930,0,0.333333,1,11.000000,-8.000000,0.000000,1.000000,1.000000,1.000000,391899.113018,647.000000,2.000000
315790.77600098,234940.67919922,22.43700027,0,0.333333,1,11.000000,-8.000000,0.000000,1.000000,1.000000,1.000000,391899.113018,355.000000,2.000000
315790.86901855,234940.77294922,22.40600014,0,0.333333,1,11.000000,-8.000000,0.000000,1.000000,1.000000,1.000000,391899.113018,530.000000,2.000000
315790.95397949,234940.85888672,22.40399933,0,0.333333,1,11.000000,-8.000000,0.000000,1.000000,1.000000,1.000000,391899.113018,535.000000,2.000000
315791.04797363,234940.95410156,22.42900085,0,0.333333,1,11.000000,-8.000000,0.000000,1.000000,1.000000,1.000000,391899.113018,373.000000,2.000000
315791.12902832,234941.03613281,22.40999985,0,0.333333,1,11.000000,-8.000000,0.000000,1.000000,1.000000,1.000000,391899.113018,321.000000,2.000000
315791.22399902,234941.13085938,22.39599991,0,0.333333,1,11.000000,-8.000000,0.000000,1.000000,1.000000,1.000000,391899.113018,345.000000,2.000000
315791.31994629,234941.22802734,22.43400002,0,0.333333,1,11.000000,-8.000000,0.000000,1.000000,1.000000,1.000000,391899.113018,410.000000,2.000000
315791.40905762,234941.31787109,22.40900040,0,0.333333,1,11.000000,-8.000000,0.000000,1.000000,1.000000,1.000000,391899.113018,404.000000,2.000000
315791.49694824,234941.40576172,22.37599945,0,0.333333,1,11.000000,-8.000000,0.000000,1.000000,1.000000,1.000000,391899.113018,328.000000,4.000000
315791.58996582,234941.50097656,22.43199921,0,0.333333,1,11.000000,-8.000000,0.000000,1.000000,1.000000,1.000000,391899.113018,421.000000,2.000000
315791.67199707,234941.58203125,22.39299965,0,0.333333,1,11.000000,-8.000000,0.000000,1.000000,1.000000,1.000000,391899.113018,613.000000,2.000000
315791.76403809,234941.67480469,22.40399933,0,0.333333,1,11.000000,-8.000000,0.000000,1.000000,1.000000,1.000000,391899.113018,654.000000,2.000000
315791.85595703,234941.76904297,22.42000008,0,0.333333,1,11.000000,-8.000000,0.000000,1.000000,1.000000,1.000000,391899.113018,438.000000,2.000000
315791.95104980,234941.86376953,22.40500069,0,0.333333,1,11.000000,-8.000000,0.000000,1.000000,1.000000,1.000000,391899.113018,582.000000,2.000000
315792.03503418,234941.94921875,22.40099907,0,0.333333,1,11.000000,-8.000000,0.000000,1.000000,1.000000,1.000000,391899.113018,352.000000,2.000000
315792.13500977,234942.04980469,22.42000008,0,0.333333,1,11.000000,-8.000000,0.000000,1.000000,2.000000,1.000000,391899.113018,37.000000,4.000000
315789.55603027,234939.65283203,22.42300034,0,0.333333,1,11.000000,-8.000000,0.000000,1.000000,2.000000,1.000000,391899.122418,14.000000,4.000000
315789.65100098,234939.74804688,22.44199944,0,0.333333,1,11.000000,-8.000000,0.000000,1.000000,1.000000,1.000000,391899.122418,320.000000,2.000000
315789.73706055,234939.83496094,22.41300011,0,0.333333,1,11.000000,-8.000000,0.000000,1.000000,1.000000,1.000000,391899.122418,559.000000,2.000000
315789.82104492,234939.91992188,22.40999985,0,0.333333,1,11.000000,-8.000000,0.000000,1.000000,1.000000,1.000000,391899.122418,423.000000,2.000000
315789.91601563,234940.01611328,22.45100021,0,0.333333,1,11.000000,-8.000000,0.000000,1.000000,1.000000,1.000000,391899.122418,321.000000,2.000000
315790.00402832,234940.10400391,22.40900040,0,0.333333,1,11.000000,-8.000000,0.000000,1.000000,1.000000,1.000000,391899.122418,769.000000,2.000000
315790.09997559,234940.20117188,22.40999985,0,0.333333,1,11.000000,-8.000000,0.000000,1.000000,1.000000,1.000000,391899.122418,346.000000,2.000000
315790.18701172,234940.28906250,22.43400002,0,0.333333,1,11.000000,-8.000000,0.000000,1.000000,1.000000,1.000000,391899.122418,324.000000,2.000000
315790.28198242,234940.38378906,22.39999962,0,0.333333,1,11.000000,-8.000000,0.000000,1.000000,1.000000,1.000000,391899.122418,470.000000,2.000000
315790.36694336,234940.47021484,22.40600014,0,0.333333,1,11.000000,-8.000000,0.000000,1.000000,1.000000,1.000000,391899.122418,498.000000,2.000000
315790.45703125,234940.56103516,22.42499924,0,0.333333,1,11.000000,-8.000000,0.000000,1.000000,1.000000,1.000000,391899.122418,502.000000,2.000000
315790.54199219,234940.64697266,22.41699982,0,0.333333,1,11.000000,-8.000000,0.000000,1.000000,1.000000,1.000000,391899.122418,355.000000,2.000000
315790.64001465,234940.74511719,22.41600037,0,0.333333,1,11.000000,-8.000000,0.000000,1.000000,1.000000,1.000000,391899.122418,309.000000,2.000000
315790.73400879,234940.84082031,22.45000076,0,0.333333,1,11.000000,-8.000000,0.000000,1.000000,1.000000,1.000000,391899.122418,369.000000,2.000000
315790.81896973,234940.92578125,22.41300011,0,0.333333,1,11.000000,-8.000000,0.000000,1.000000,1.000000,1.000000,391899.122418,618.000000,2.000000
315790.91796875,234941.02587891,22.47800064,0,0.333333,1,11.000000,-8.000000,0.000000,1.000000,2.000000,1.000000,391899.122418,174.000000,4.000000
315791.00695801,234941.11523438,22.46100044,0,0.333333,1,11.000000,-8.000000,0.000000,1.000000,1.000000,1.000000,391899.122418,192.000000,2.000000
315791.17199707,234941.28222656,22.38100052,0,0.333333,1,11.000000,-8.000000,0.000000,1.000000,1.000000,1.000000,391899.122418,303.000000,4.000000
315791.26794434,234941.37890625,22.41799927,0,0.333333,1,11.000000,-8.000000,0.000000,1.000000,1.000000,1.000000,391899.122418,360.000000,2.000000
315791.36499023,234941.47607422,22.40900040,0,0.333333,1,11.000000,-8.000000,0.000000,1.000000,1.000000,1.000000,391899.122418,358.000000,2.000000
315791.44995117,234941.56201172,22.41300011,0,0.333333,1,11.000000,-8.000000,0.000000,1.000000,1.000000,1.000000,391899.122418,354.000000,2.000000
315791.54699707,234941.66015625,22.43199921,0,0.333333,1,11.000000,-8.000000,0.000000,1.000000,1.000000,1.000000,391899.122418,512.000000,2.000000
315791.62805176,234941.74218750,22.39200020,0,0.333333,1,11.000000,-8.000000,0.000000,1.000000,1.000000,1.000000,391899.122418,492.000000,2.000000
315791.71997070,234941.83398438,22.40500069,0,0.333333,1,11.000000,-8.000000,0.000000,1.000000,1.000000,1.000000,391899.122418,455.000000,2.000000
315791.80603027,234941.92089844,22.41300011,0,0.333333,1,11.000000,-8.000000,0.000000,1.000000,1.000000,1.000000,391899.122418,223.000000,2.000000
315790.74096680,234941.04199219,22.40600014,0,0.333333,1,11.000000,-8.000000,0.000000,1.000000,1.000000,1.000000,391899.131817,440.000000,2.000000
315790.82202148,234941.12402344,22.37599945,0,0.333333,1,11.000000,-8.000000,0.000000,1.000000,1.000000,1.000000,391899.131817,256.000000,4.000000
315790.92004395,234941.22216797,22.38299942,0,0.333333,1,11.000000,-8.000000,0.000000,1.000000,1.000000,1.000000,391899.131817,287.000000,4.000000
315791.00500488,234941.30810547,22.39200020,0,0.333333,1,11.000000,-8.000000,0.000000,1.000000,1.000000,1.000000,391899.131817,214.000000,2.000000
315791.09594727,234941.39990234,22.39999962,0,0.333333,1,11.000000,-8.000000,0.000000,1.000000,1.000000,1.000000,391899.131817,275.000000,2.000000
315791.17895508,234941.48388672,22.38199997,0,0.333333,1,11.000000,-8.000000,0.000000,1.000000,1.000000,1.000000,391899.131817,816.000000,2.000000
315791.27697754,234941.58300781,22.40699959,0,0.333333,1,11.000000,-8.000000,0.000000,1.000000,1.000000,1.000000,391899.131817,346.000000,2.000000
315791.36999512,234941.67578125,22.41500092,0,0.333333,1,11.000000,-8.000000,0.000000,1.000000,1.000000,1.000000,391899.131817,349.000000,2.000000
315791.45996094,234941.76708984,22.40699959,0,0.333333,1,11.000000,-8.000000,0.000000,1.000000,1.000000,1.000000,391899.131817,314.000000,2.000000
315791.55102539,234941.85888672,22.41300011,0,0.333333,1,11.000000,-8.000000,0.000000,1.000000,2.000000,1.000000,391899.131817,75.000000,4.000000
315789.56201172,234939.85302734,22.41500092,0,0.333333,1,11.000000,-8.000000,0.000000,1.000000,2.000000,1.000000,391899.131695,167.000000,4.000000
315789.66003418,234939.95214844,22.42000008,0,0.333333,1,11.000000,-8.000000,0.000000,1.000000,1.000000,1.000000,391899.131695,449.000000,2.000000
315789.73999023,234940.03222656,22.39200020,0,0.333333,1,11.000000,-8.000000,0.000000,1.000000,1.000000,1.000000,391899.131817,321.000000,2.000000
315789.83300781,234940.12695313,22.42399979,0,0.333333,1,11.000000,-8.000000,0.000000,1.000000,1.000000,1.000000,391899.131817,202.000000,2.000000
315789.91699219,234940.21093750,22.40800095,0,0.333333,1,11.000000,-8.000000,0.000000,1.000000,1.000000,1.000000,391899.131817,514.000000,2.000000
315790.01599121,234940.31103516,22.41200066,0,0.333333,1,11.000000,-8.000000,0.000000,1.000000,1.000000,1.000000,391899.131817,525.000000,2.000000
315790.10498047,234940.40087891,22.41300011,0,0.333333,1,11.000000,-8.000000,0.000000,1.000000,1.000000,1.000000,391899.131817,413.000000,2.000000
315790.19604492,234940.49218750,22.40900040,0,0.333333,1,11.000000,-8.000000,0.000000,1.000000,1.000000,1.000000,391899.131817,448.000000,2.000000
315790.28796387,234940.58496094,22.41799927,0,0.333333,1,11.000000,-8.000000,0.000000,1.000000,1.000000,1.000000,391899.131817,389.000000,2.000000
315790.37902832,234940.67578125,22.41099930,0,0.333333,1,11.000000,-8.000000,0.000000,1.000000,1.000000,1.000000,391899.131817,483.000000,2.000000
315790.46203613,234940.76123047,22.41200066,0,0.333333,1,11.000000,-8.000000,0.000000,1.000000,1.000000,1.000000,391899.131817,266.000000,2.000000
315790.55102539,234940.85009766,22.39399910,0,0.333333,1,11.000000,-8.000000,0.000000,1.000000,1.000000,1.000000,391899.131817,345.000000,4.000000
315790.64501953,234940.94482422,22.42499924,0,0.333333,1,11.000000,-8.000000,0.000000,1.000000,1.000000,1.000000,391899.131817,333.000000,2.000000
315789.50305176,234940.11816406,22.40200043,0,0.333333,1,11.000000,-8.000000,0.000000,1.000000,2.000000,1.000000,391899.141095,238.000000,4.000000
315789.60302734,234940.21923828,22.40999985,0,0.333333,1,11.000000,-8.000000,0.000000,1.000000,1.000000,1.000000,391899.141095,462.000000,2.000000
315789.68798828,234940.30419922,22.40200043,0,0.333333,1,11.000000,-8.000000,0.000000,1.000000,1.000000,1.000000,391899.141095,320.000000,2.000000
315789.77795410,234940.39501953,22.43099976,0,0.333333,1,11.000000,-8.000000,0.000000,1.000000,1.000000,1.000000,391899.141095,224.000000,2.000000
315789.86206055,234940.47998047,22.43099976,0,0.333333,1,11.000000,-8.000000,0.000000,1.000000,1.000000,1.000000,391899.141095,541.000000,2.000000
315789.95898438,234940.57812500,22.40699959,0,0.333333,1,11.000000,-8.000000,0.000000,1.000000,1.000000,1.000000,391899.141095,318.000000,2.000000
315790.05200195,234940.67187500,22.40900040,0,0.333333,1,11.000000,-8.000000,0.000000,1.000000,1.000000,1.000000,391899.141095,393.000000,2.000000
315790.13598633,234940.75488281,22.37299919,0,0.333333,1,11.000000,-8.000000,0.000000,1.000000,1.000000,1.000000,391899.141095,230.000000,4.000000
315790.22705078,234940.84814453,22.37400055,0,0.333333,1,11.000000,-8.000000,0.000000,1.000000,1.000000,1.000000,391899.141095,369.000000,4.000000
315790.32299805,234940.94384766,22.40299988,0,0.333333,1,11.000000,-8.000000,0.000000,1.000000,1.000000,1.000000,391899.141095,398.000000,2.000000
315790.41198730,234941.03417969,22.44300079,0,0.333333,1,11.000000,-8.000000,0.000000,1.000000,2.000000,1.000000,391899.141095,153.000000,4.000000
315790.49902344,234941.12207031,22.44799995,0,0.333333,1,11.000000,-8.000000,0.000000,1.000000,2.000000,1.000000,391899.141217,148.000000,4.000000
315790.58703613,234941.21093750,22.40999985,0,0.333333,1,11.000000,-8.000000,0.000000,1.000000,1.000000,1.000000,391899.141217,257.000000,2.000000
315790.68603516,234941.31005859,22.40600014,0,0.333333,1,11.000000,-8.000000,0.000000,1.000000,1.000000,1.000000,391899.141217,324.000000,2.000000
315790.77099609,234941.39599609,22.40500069,0,0.333333,1,11.000000,-8.000000,0.000000,1.000000,1.000000,1.000000,391899.141217,349.000000,2.000000
315790.86596680,234941.49218750,22.41699982,0,0.333333,1,11.000000,-8.000000,0.000000,1.000000,1.000000,1.000000,391899.141217,485.000000,2.000000
315790.94995117,234941.57617188,22.40200043,0,0.333333,1,11.000000,-8.000000,0.000000,1.000000,1.000000,1.000000,391899.141217,395.000000,2.000000
315791.04101563,234941.66796875,22.40399933,0,0.333333,1,11.000000,-8.000000,0.000000,1.000000,1.000000,1.000000,391899.141217,321.000000,2.000000
315791.12597656,234941.75390625,22.39800072,0,0.333333,1,11.000000,-8.000000,0.000000,1.000000,1.000000,1.000000,391899.141217,293.000000,2.000000
315791.49401855,234942.12500000,22.37700081,0,0.333333,1,11.000000,-8.000000,0.000000,1.000000,1.000000,1.000000,391899.141217,152.000000,4.000000
315791.57995605,234942.21191406,22.36599922,0,0.333333,1,11.000000,-8.000000,0.000000,1.000000,1.000000,1.000000,391899.141217,123.000000,4.000000
315789.43200684,234940.22314453,22.41099930,0,0.333333,1,11.000000,-8.000000,0.000000,1.000000,2.000000,1.000000,391899.150494,180.000000,4.000000
315789.52404785,234940.31591797,22.43199921,0,0.333333,1,11.000000,-8.000000,0.000000,1.000000,1.000000,1.000000,391899.150494,472.000000,2.000000
315789.61401367,234940.40722656,22.41799927,0,0.333333,1,11.000000,-8.000000,0.000000,1.000000,1.000000,1.000000,391899.150494,541.000000,2.000000
315789.70605469,234940.49902344,22.42000008,0,0.333333,1,11.000000,-8.000000,0.000000,1.000000,1.000000,1.000000,391899.150494,245.000000,2.000000
315789.79101563,234940.58593750,22.43899918,0,0.333333,1,11.000000,-8.000000,0.000000,1.000000,1.000000,1.000000,391899.150494,567.000000,2.000000
315789.87805176,234940.67285156,22.40600014,0,0.333333,1,11.000000,-8.000000,0.000000,1.000000,1.000000,1.000000,391899.150494,636.000000,2.000000
315789.96997070,234940.76513672,22.40200043,0,0.333333,1,11.000000,-8.000000,0.000000,1.000000,1.000000,1.000000,391899.150494,384.000000,2.000000
315790.06396484,234940.85986328,22.36300087,0,0.333333,1,11.000000,-8.000000,0.000000,1.000000,1.000000,1.000000,391899.150494,286.000000,4.000000
315790.15600586,234940.95410156,22.45599937,0,0.333333,1,11.000000,-8.000000,0.000000,1.000000,1.000000,1.000000,391899.150494,249.000000,2.000000
315790.24804688,234941.04589844,22.40200043,0,0.333333,1,11.000000,-8.000000,0.000000,1.000000,1.000000,1.000000,391899.150494,520.000000,2.000000
315790.33496094,234941.13476563,22.43300056,0,0.333333,1,11.000000,-8.000000,0.000000,1.000000,1.000000,1.000000,391899.150494,190.000000,2.000000
315790.42395020,234941.22412109,22.40999985,0,0.333333,1,11.000000,-8.000000,0.000000,1.000000,1.000000,1.000000,391899.150494,325.000000,2.000000
315790.50903320,234941.30908203,22.41699982,0,0.333333,1,11.000000,-8.000000,0.000000,1.000000,1.000000,1.000000,391899.150494,299.000000,2.000000
315790.60400391,234941.40478516,22.40800095,0,0.333333,1,11.000000,-8.000000,0.000000,1.000000,1.000000,1.000000,391899.150494,800.000000,2.000000
315790.69604492,234941.49804688,22.40699959,0,0.333333,1,11.000000,-8.000000,0.000000,1.000000,1.000000,1.000000,391899.150494,465.000000,2.000000
315790.78894043,234941.59082031,22.41399956,0,0.333333,1,11.000000,-8.000000,0.000000,1.000000,1.000000,1.000000,391899.150494,384.000000,2.000000
315790.87597656,234941.67919922,22.39100075,0,0.333333,1,11.000000,-8.000000,0.000000,1.000000,1.000000,1.000000,391899.150494,146.000000,2.000000
315791.14099121,234941.94580078,22.38199997,0,0.333333,1,11.000000,-8.000000,0.000000,1.000000,1.000000,1.000000,391899.150494,16.000000,2.000000
315791.23205566,234942.03808594,22.39200020,0,0.333333,1,11.000000,-8.000000,0.000000,1.000000,1.000000,1.000000,391899.150494,300.000000,2.000000
315791.32604980,234942.13281250,22.37199974,0,0.333333,1,11.000000,-8.000000,0.000000,1.000000,1.000000,1.000000,391899.150616,65.000000,2.000000
315791.59204102,234942.40087891,22.36800003,0,0.333333,1,11.000000,-8.000000,0.000000,1.000000,1.000000,1.000000,391899.150616,111.000000,4.000000
315789.45703125,234940.52783203,22.44499969,0,0.333333,1,11.000000,-8.000000,0.000000,1.000000,1.000000,1.000000,391899.159893,299.000000,2.000000
315789.53894043,234940.60986328,22.40800095,0,0.333333,1,11.000000,-8.000000,0.000000,1.000000,1.000000,1.000000,391899.159893,313.000000,2.000000
315789.63403320,234940.70605469,22.40099907,0,0.333333,1,11.000000,-8.000000,0.000000,1.000000,1.000000,1.000000,391899.159893,217.000000,2.000000
315789.72204590,234940.79492188,22.42900085,0,0.333333,1,11.000000,-8.000000,0.000000,1.000000,1.000000,1.000000,391899.159893,223.000000,2.000000
315789.80895996,234940.88183594,22.39800072,0,0.333333,1,11.000000,-8.000000,0.000000,1.000000,1.000000,1.000000,391899.159893,850.000000,2.000000
315789.89404297,234940.96777344,22.39399910,0,0.333333,1,11.000000,-8.000000,0.000000,1.000000,1.000000,1.000000,391899.159893,355.000000,2.000000
315789.99304199,234941.06884766,22.43199921,0,0.333333,1,11.000000,-8.000000,0.000000,1.000000,1.000000,1.000000,391899.159893,342.000000,2.000000
315790.08300781,234941.15917969,22.40999985,0,0.333333,1,11.000000,-8.000000,0.000000,1.000000,1.000000,1.000000,391899.159893,304.000000,2.000000
315790.17395020,234941.25097656,22.41600037,0,0.333333,1,11.000000,-8.000000,0.000000,1.000000,1.000000,1.000000,391899.159893,404.000000,2.000000
315790.26794434,234941.34619141,22.43099976,0,0.333333,1,11.000000,-8.000000,0.000000,1.000000,1.000000,1.000000,391899.159893,435.000000,2.000000
315790.35498047,234941.43310547,22.41500092,0,0.333333,1,11.000000,-8.000000,0.000000,1.000000,1.000000,1.000000,391899.159893,300.000000,2.000000
315790.43896484,234941.51806641,22.41099930,0,0.333333,1,11.000000,-8.000000,0.000000,1.000000,1.000000,1.000000,391899.159893,375.000000,2.000000
315790.53100586,234941.61083984,22.42900085,0,0.333333,1,11.000000,-8.000000,0.000000,1.000000,2.000000,1.000000,391899.159893,16.000000,4.000000
315790.71594238,234941.79687500,22.39500046,0,0.333333,1,11.000000,-8.000000,0.000000,1.000000,2.000000,1.000000,391899.159893,51.000000,4.000000
315790.79895020,234941.87988281,22.37599945,0,0.333333,1,11.000000,-8.000000,0.000000,1.000000,1.000000,1.000000,391899.159893,333.000000,4.000000
